-0.0000000e+00  -0.0000000e+00  -0.0000000e+00  -0.0000000e+00  -0.0000000e+00  -0.0000000e+00  -0.0000000e+00  -0.0000000e+00  -0.0000000e+00  -0.0000000e+00   3.8950689e+00   3.3175430e+01   6.5758539e+01   1.0249277e+02   1.2307705e+02   1.3763147e+02   1.5031451e+02   1.5678557e+02   1.5738805e+02   1.6131979e+02   1.6210440e+02   1.6210374e+02   1.5810884e+02   1.5327864e+02   1.4555732e+02   1.3689089e+02   1.2989226e+02   1.2481530e+02   1.1753912e+02   1.0649719e+02   1.0588409e+02   9.0988553e+01   8.1877911e+01   7.7539187e+01   7.3400200e+01   6.2536699e+01   4.2759929e+01   3.5191900e+01   2.7035543e+01   1.3392462e+01  -0.0000000e+00  -0.0000000e+00  -0.0000000e+00  -0.0000000e+00  -0.0000000e+00  -0.0000000e+00  -0.0000000e+00  -0.0000000e+00  -0.0000000e+00  -0.0000000e+00  -0.0000000e+00  -0.0000000e+00  -0.0000000e+00  -0.0000000e+00  -0.0000000e+00  -0.0000000e+00  -0.0000000e+00  -0.0000000e+00  -0.0000000e+00  -0.0000000e+00  -0.0000000e+00
-0.0000000e+00  -0.0000000e+00  -0.0000000e+00  -0.0000000e+00  -0.0000000e+00  -0.0000000e+00  -0.0000000e+00  -0.0000000e+00  -0.0000000e+00  -0.0000000e+00  -0.0000000e+00   2.8613114e+01   6.3425099e+01   9.3731775e+01   1.2164739e+02   1.3590810e+02   1.5411193e+02   1.6205716e+02   1.6113988e+02   1.6151274e+02   1.6363095e+02   1.6392040e+02   1.5964256e+02   1.5421489e+02   1.4708637e+02   1.3907569e+02   1.3085568e+02   1.2326672e+02   1.1763341e+02   1.0512362e+02   1.0369137e+02   9.4985507e+01   8.0416146e+01   7.7614256e+01   7.2587863e+01   6.4688702e+01   4.7123695e+01   4.0196262e+01   2.9521375e+01   1.4573965e+01  -0.0000000e+00  -0.0000000e+00  -0.0000000e+00  -0.0000000e+00  -0.0000000e+00  -0.0000000e+00  -0.0000000e+00  -0.0000000e+00  -0.0000000e+00  -0.0000000e+00  -0.0000000e+00  -0.0000000e+00  -0.0000000e+00  -0.0000000e+00  -0.0000000e+00  -0.0000000e+00  -0.0000000e+00  -0.0000000e+00  -0.0000000e+00  -0.0000000e+00  -0.0000000e+00
-0.0000000e+00  -0.0000000e+00  -0.0000000e+00  -0.0000000e+00  -0.0000000e+00  -0.0000000e+00  -0.0000000e+00  -0.0000000e+00  -0.0000000e+00  -0.0000000e+00  -0.0000000e+00   2.1869234e+01   5.7589612e+01   8.5672546e+01   1.2034525e+02   1.3719967e+02   1.4966003e+02   1.6471321e+02   1.6539579e+02   1.6544960e+02   1.6625994e+02   1.6601612e+02   1.6093680e+02   1.5545940e+02   1.4858413e+02   1.4175750e+02   1.3112455e+02   1.2516412e+02   1.1454506e+02   1.1122851e+02   9.6852209e+01   9.1368105e+01   7.9934815e+01   7.4702250e+01   7.1754744e+01   6.4476813e+01   5.3850731e+01   4.2326685e+01   3.1439006e+01   1.3312856e+01  -0.0000000e+00  -0.0000000e+00  -0.0000000e+00  -0.0000000e+00  -0.0000000e+00  -0.0000000e+00  -0.0000000e+00  -0.0000000e+00  -0.0000000e+00  -0.0000000e+00  -0.0000000e+00  -0.0000000e+00  -0.0000000e+00  -0.0000000e+00  -0.0000000e+00  -0.0000000e+00  -0.0000000e+00  -0.0000000e+00  -0.0000000e+00  -0.0000000e+00  -0.0000000e+00
-0.0000000e+00  -0.0000000e+00  -0.0000000e+00  -0.0000000e+00  -0.0000000e+00  -0.0000000e+00  -0.0000000e+00  -0.0000000e+00  -0.0000000e+00  -0.0000000e+00  -0.0000000e+00   1.6079732e+01   5.1098641e+01   8.1526948e+01   1.1818321e+02   1.3657222e+02   1.4984333e+02   1.6575727e+02   1.6621492e+02   1.6610364e+02   1.6715189e+02   1.6589771e+02   1.6363929e+02   1.5608677e+02   1.4825861e+02   1.4165850e+02   1.3570113e+02   1.2240510e+02   1.1830805e+02   1.0673844e+02   1.0260914e+02   8.9211409e+01   8.1597068e+01   7.6486295e+01   7.0123258e+01   6.4570040e+01   5.5103393e+01   4.7534300e+01   3.1098901e+01   1.4067240e+01  -0.0000000e+00  -0.0000000e+00  -0.0000000e+00  -0.0000000e+00  -0.0000000e+00  -0.0000000e+00  -0.0000000e+00  -0.0000000e+00  -0.0000000e+00  -0.0000000e+00  -0.0000000e+00  -0.0000000e+00  -0.0000000e+00  -0.0000000e+00  -0.0000000e+00  -0.0000000e+00  -0.0000000e+00  -0.0000000e+00  -0.0000000e+00  -0.0000000e+00  -0.0000000e+00
-0.0000000e+00  -0.0000000e+00  -0.0000000e+00  -0.0000000e+00  -0.0000000e+00  -0.0000000e+00  -0.0000000e+00  -0.0000000e+00  -0.0000000e+00  -0.0000000e+00  -0.0000000e+00   1.0333632e+01   4.6003082e+01   7.9514855e+01   1.1783319e+02   1.3359420e+02   1.4779933e+02   1.6749892e+02   1.6903518e+02   1.6649826e+02   1.7020774e+02   1.6801255e+02   1.6360867e+02   1.5732426e+02   1.5158138e+02   1.4432369e+02   1.3648072e+02   1.3022791e+02   1.1613592e+02   1.0510798e+02   1.0160858e+02   9.7958437e+01   8.5120798e+01   7.8377512e+01   6.8408496e+01   6.7646022e+01   5.6369748e+01   4.9097917e+01   3.1475663e+01   1.5502642e+01  -0.0000000e+00  -0.0000000e+00  -0.0000000e+00  -0.0000000e+00  -0.0000000e+00  -0.0000000e+00  -0.0000000e+00  -0.0000000e+00  -0.0000000e+00  -0.0000000e+00  -0.0000000e+00  -0.0000000e+00  -0.0000000e+00  -0.0000000e+00  -0.0000000e+00  -0.0000000e+00  -0.0000000e+00  -0.0000000e+00  -0.0000000e+00  -0.0000000e+00  -0.0000000e+00
-0.0000000e+00  -0.0000000e+00  -0.0000000e+00  -0.0000000e+00  -0.0000000e+00  -0.0000000e+00  -0.0000000e+00  -0.0000000e+00  -0.0000000e+00  -0.0000000e+00  -0.0000000e+00   8.6745967e+00   4.1387292e+01   7.6503658e+01   1.1425403e+02   1.3169983e+02   1.4739990e+02   1.6490099e+02   1.7029034e+02   1.6729910e+02   1.7116055e+02   1.7182012e+02   1.6631409e+02   1.6033865e+02   1.5388693e+02   1.4718630e+02   1.3825853e+02   1.3363386e+02   1.2573664e+02   1.0942138e+02   1.0107900e+02   9.2105044e+01   8.5020272e+01   7.8947282e+01   6.7751242e+01   6.9807684e+01   6.0538810e+01   4.8534570e+01   3.1918475e+01   1.7160660e+01  -0.0000000e+00  -0.0000000e+00  -0.0000000e+00  -0.0000000e+00  -0.0000000e+00  -0.0000000e+00  -0.0000000e+00  -0.0000000e+00  -0.0000000e+00  -0.0000000e+00  -0.0000000e+00  -0.0000000e+00  -0.0000000e+00  -0.0000000e+00  -0.0000000e+00  -0.0000000e+00  -0.0000000e+00  -0.0000000e+00  -0.0000000e+00  -0.0000000e+00  -0.0000000e+00
-0.0000000e+00  -0.0000000e+00  -0.0000000e+00  -0.0000000e+00  -0.0000000e+00  -0.0000000e+00  -0.0000000e+00  -0.0000000e+00  -0.0000000e+00  -0.0000000e+00  -0.0000000e+00   5.5614204e+00   3.7846591e+01   6.5159880e+01   1.0452279e+02   1.3615691e+02   1.4739827e+02   1.6448580e+02   1.7170641e+02   1.6740231e+02   1.7170414e+02   1.7385514e+02   1.6919377e+02   1.6148927e+02   1.5276697e+02   1.4722049e+02   1.3985857e+02   1.3158383e+02   1.2780439e+02   1.1176194e+02   1.0596991e+02   9.7555077e+01   8.4183171e+01   8.0518191e+01   7.0106805e+01   6.9598617e+01   6.4566678e+01   5.3790208e+01   3.9147466e+01   1.4857570e+01   2.3216800e+00  -0.0000000e+00  -0.0000000e+00  -0.0000000e+00  -0.0000000e+00  -0.0000000e+00  -0.0000000e+00  -0.0000000e+00  -0.0000000e+00  -0.0000000e+00  -0.0000000e+00  -0.0000000e+00  -0.0000000e+00  -0.0000000e+00  -0.0000000e+00  -0.0000000e+00  -0.0000000e+00  -0.0000000e+00  -0.0000000e+00  -0.0000000e+00  -0.0000000e+00
-0.0000000e+00  -0.0000000e+00  -0.0000000e+00  -0.0000000e+00  -0.0000000e+00  -0.0000000e+00  -0.0000000e+00  -0.0000000e+00  -0.0000000e+00  -0.0000000e+00  -0.0000000e+00   6.0183834e+00   3.4659327e+01   6.5407251e+01   1.0025792e+02   1.3627025e+02   1.4726501e+02   1.6629194e+02   1.7190570e+02   1.7220458e+02   1.7329010e+02   1.7386397e+02   1.6842908e+02   1.6212168e+02   1.5480744e+02   1.4678250e+02   1.4163182e+02   1.3434261e+02   1.2556468e+02   1.1690313e+02   1.0699959e+02   1.0212923e+02   8.8379389e+01   7.6184604e+01   7.3409140e+01   7.3292243e+01   6.5799386e+01   4.8351409e+01   4.1417798e+01   2.1757423e+01  -0.0000000e+00  -0.0000000e+00  -0.0000000e+00  -0.0000000e+00  -0.0000000e+00  -0.0000000e+00  -0.0000000e+00  -0.0000000e+00  -0.0000000e+00  -0.0000000e+00  -0.0000000e+00  -0.0000000e+00  -0.0000000e+00  -0.0000000e+00  -0.0000000e+00  -0.0000000e+00  -0.0000000e+00  -0.0000000e+00  -0.0000000e+00  -0.0000000e+00  -0.0000000e+00
-0.0000000e+00  -0.0000000e+00  -0.0000000e+00  -0.0000000e+00  -0.0000000e+00  -0.0000000e+00  -0.0000000e+00  -0.0000000e+00  -0.0000000e+00  -0.0000000e+00  -0.0000000e+00   3.7503176e+00   3.1794241e+01   6.1315034e+01   9.3673229e+01   1.3574605e+02   1.4858457e+02   1.6384458e+02   1.7220367e+02   1.7399781e+02   1.7439515e+02   1.7571124e+02   1.7040223e+02   1.6551901e+02   1.5665197e+02   1.5085952e+02   1.4519676e+02   1.3662744e+02   1.2334818e+02   1.1770603e+02   1.1125980e+02   1.0568886e+02   8.8748897e+01   7.6425180e+01   7.1861988e+01   7.1740691e+01   6.9722373e+01   5.3277285e+01   4.2244799e+01   2.7105274e+01   9.3924450e+00  -0.0000000e+00  -0.0000000e+00  -0.0000000e+00  -0.0000000e+00  -0.0000000e+00  -0.0000000e+00  -0.0000000e+00  -0.0000000e+00  -0.0000000e+00  -0.0000000e+00  -0.0000000e+00  -0.0000000e+00  -0.0000000e+00  -0.0000000e+00  -0.0000000e+00  -0.0000000e+00  -0.0000000e+00  -0.0000000e+00  -0.0000000e+00  -0.0000000e+00
-0.0000000e+00  -0.0000000e+00  -0.0000000e+00  -0.0000000e+00  -0.0000000e+00  -0.0000000e+00  -0.0000000e+00  -0.0000000e+00  -0.0000000e+00  -0.0000000e+00  -0.0000000e+00   3.5512204e+00   3.0178828e+01   6.0638003e+01   8.9158310e+01   1.3373686e+02   1.5093773e+02   1.6109182e+02   1.7083189e+02   1.7420634e+02   1.7570580e+02   1.7391938e+02   1.7061248e+02   1.6539004e+02   1.5775145e+02   1.5349945e+02   1.4804252e+02   1.3774143e+02   1.2635384e+02   1.1419950e+02   1.1368723e+02   1.0493931e+02   9.3211125e+01   8.6804116e+01   7.1509704e+01   7.1935665e+01   7.1440678e+01   5.9357679e+01   4.5402250e+01   3.1599228e+01   1.7502338e+01  -0.0000000e+00  -0.0000000e+00  -0.0000000e+00  -0.0000000e+00  -0.0000000e+00  -0.0000000e+00  -0.0000000e+00  -0.0000000e+00  -0.0000000e+00  -0.0000000e+00  -0.0000000e+00  -0.0000000e+00  -0.0000000e+00  -0.0000000e+00  -0.0000000e+00  -0.0000000e+00  -0.0000000e+00  -0.0000000e+00  -0.0000000e+00  -0.0000000e+00
-0.0000000e+00  -0.0000000e+00  -0.0000000e+00  -0.0000000e+00  -0.0000000e+00  -0.0000000e+00  -0.0000000e+00  -0.0000000e+00  -0.0000000e+00  -0.0000000e+00  -0.0000000e+00   3.6556467e+00   2.8033046e+01   5.9736512e+01   8.8467967e+01   1.2815119e+02   1.5007073e+02   1.6031877e+02   1.7149000e+02   1.7419162e+02   1.7649655e+02   1.7597428e+02   1.7085763e+02   1.6598783e+02   1.5829124e+02   1.5367900e+02   1.4821286e+02   1.4197933e+02   1.2905681e+02   1.1851475e+02   1.1134034e+02   1.0388899e+02   9.5639002e+01   8.3687814e+01   7.2990656e+01   7.3930722e+01   6.5513635e+01   6.2902866e+01   4.8264390e+01   3.3117870e+01   1.9660518e+01   2.6764378e+00  -0.0000000e+00  -0.0000000e+00  -0.0000000e+00  -0.0000000e+00  -0.0000000e+00  -0.0000000e+00  -0.0000000e+00  -0.0000000e+00  -0.0000000e+00  -0.0000000e+00  -0.0000000e+00  -0.0000000e+00  -0.0000000e+00  -0.0000000e+00  -0.0000000e+00  -0.0000000e+00  -0.0000000e+00  -0.0000000e+00   7.1964762e+01
-0.0000000e+00  -0.0000000e+00  -0.0000000e+00  -0.0000000e+00  -0.0000000e+00  -0.0000000e+00  -0.0000000e+00  -0.0000000e+00  -0.0000000e+00  -0.0000000e+00  -0.0000000e+00   1.9958609e+00   2.7959787e+01   5.8996533e+01   8.4621135e+01   1.2235425e+02   1.4829919e+02   1.5980297e+02   1.7250627e+02   1.7618326e+02   1.7803112e+02   1.7803874e+02   1.7163770e+02   1.6669928e+02   1.6073266e+02   1.5425486e+02   1.4849542e+02   1.4385814e+02   1.3350201e+02   1.1896063e+02   1.1203798e+02   1.0390210e+02   9.6877024e+01   8.6086747e+01   7.6652046e+01   7.6206268e+01   6.6784017e+01   6.5598329e+01   5.6004044e+01   3.7459577e+01   2.1582993e+01   1.0721621e+01  -0.0000000e+00  -0.0000000e+00  -0.0000000e+00  -0.0000000e+00  -0.0000000e+00  -0.0000000e+00  -0.0000000e+00  -0.0000000e+00  -0.0000000e+00  -0.0000000e+00  -0.0000000e+00  -0.0000000e+00  -0.0000000e+00  -0.0000000e+00  -0.0000000e+00  -0.0000000e+00  -0.0000000e+00  -0.0000000e+00  -0.0000000e+00
-0.0000000e+00  -0.0000000e+00  -0.0000000e+00  -0.0000000e+00  -0.0000000e+00  -0.0000000e+00  -0.0000000e+00  -0.0000000e+00  -0.0000000e+00  -0.0000000e+00  -0.0000000e+00   4.0800494e+00   2.7051097e+01   5.7268155e+01   7.9912146e+01   1.1345881e+02   1.4236865e+02   1.5843096e+02   1.6982347e+02   1.7660713e+02   1.8157673e+02   1.8161013e+02   1.7775094e+02   1.7165226e+02   1.6621239e+02   1.5633745e+02   1.4933753e+02   1.4320210e+02   1.3600674e+02   1.2766735e+02   1.1350459e+02   1.0269301e+02   9.7238374e+01   8.9835114e+01   7.7970800e+01   7.8083448e+01   6.3505964e+01   5.3045337e+01   5.8460203e+01   3.8374419e+01   2.5764089e+01   1.4721195e+01  -0.0000000e+00  -0.0000000e+00  -0.0000000e+00  -0.0000000e+00  -0.0000000e+00  -0.0000000e+00  -0.0000000e+00  -0.0000000e+00  -0.0000000e+00  -0.0000000e+00  -0.0000000e+00  -0.0000000e+00  -0.0000000e+00  -0.0000000e+00  -0.0000000e+00  -0.0000000e+00  -0.0000000e+00  -0.0000000e+00  -0.0000000e+00
-0.0000000e+00  -0.0000000e+00  -0.0000000e+00  -0.0000000e+00  -0.0000000e+00  -0.0000000e+00  -0.0000000e+00  -0.0000000e+00  -0.0000000e+00  -0.0000000e+00  -0.0000000e+00   4.5480036e+00   2.5584547e+01   5.4297692e+01   8.1459503e+01   1.1469660e+02   1.4478653e+02   1.5773281e+02   1.7109720e+02   1.7812276e+02   1.8393508e+02   1.8239101e+02   1.7984270e+02   1.7390784e+02   1.6748667e+02   1.6061457e+02   1.5547616e+02   1.4661830e+02   1.3976257e+02   1.3127843e+02   1.1385884e+02   1.0656338e+02   9.7370308e+01   8.8529247e+01   7.9511565e+01   7.7389827e+01   6.1743624e+01   6.3629161e+01   5.7775966e+01   3.8064111e+01   2.6861831e+01   1.8114471e+01   3.4716096e+00  -0.0000000e+00  -0.0000000e+00  -0.0000000e+00  -0.0000000e+00  -0.0000000e+00  -0.0000000e+00  -0.0000000e+00  -0.0000000e+00  -0.0000000e+00  -0.0000000e+00  -0.0000000e+00  -0.0000000e+00  -0.0000000e+00  -0.0000000e+00  -0.0000000e+00  -0.0000000e+00  -0.0000000e+00  -0.0000000e+00
-0.0000000e+00  -0.0000000e+00  -0.0000000e+00  -0.0000000e+00  -0.0000000e+00  -0.0000000e+00  -0.0000000e+00  -0.0000000e+00  -0.0000000e+00  -0.0000000e+00  -0.0000000e+00   3.3259109e+00   2.4705410e+01   5.4172887e+01   8.2711574e+01   1.1673106e+02   1.4404808e+02   1.5949721e+02   1.7140118e+02   1.7609872e+02   1.8358670e+02   1.8350481e+02   1.8072216e+02   1.7742945e+02   1.6586945e+02   1.6046852e+02   1.5104855e+02   1.3930516e+02   1.3960192e+02   1.3554701e+02   1.1346912e+02   1.0600941e+02   9.6615945e+01   9.0591168e+01   7.7138472e+01   7.6517387e+01   6.3864188e+01   6.7626245e+01   5.7166208e+01   4.3134040e+01   2.8199728e+01   2.2484455e+01   5.6966372e+00  -0.0000000e+00  -0.0000000e+00  -0.0000000e+00  -0.0000000e+00  -0.0000000e+00  -0.0000000e+00  -0.0000000e+00  -0.0000000e+00  -0.0000000e+00  -0.0000000e+00  -0.0000000e+00  -0.0000000e+00  -0.0000000e+00  -0.0000000e+00  -0.0000000e+00  -0.0000000e+00  -0.0000000e+00  -0.0000000e+00
-0.0000000e+00  -0.0000000e+00  -0.0000000e+00  -0.0000000e+00  -0.0000000e+00  -0.0000000e+00  -0.0000000e+00  -0.0000000e+00  -0.0000000e+00  -0.0000000e+00  -0.0000000e+00   4.3768508e+00   2.5015894e+01   5.4081734e+01   8.2217780e+01   1.1453540e+02   1.4416183e+02   1.6041520e+02   1.6811451e+02   1.7420550e+02   1.8306523e+02   1.8396319e+02   1.8210405e+02   1.7844447e+02   1.7294569e+02   1.6183636e+02   1.5132200e+02   1.4760178e+02   1.4185532e+02   1.3329106e+02   1.1773552e+02   1.0624405e+02   9.7111670e+01   9.1804020e+01   7.7979692e+01   7.2985366e+01   7.2180121e+01   6.4618999e+01   5.0745929e+01   4.7517149e+01   2.7798972e+01   2.4480122e+01   1.4545056e+01  -0.0000000e+00  -0.0000000e+00  -0.0000000e+00  -0.0000000e+00  -0.0000000e+00  -0.0000000e+00  -0.0000000e+00  -0.0000000e+00  -0.0000000e+00  -0.0000000e+00  -0.0000000e+00  -0.0000000e+00  -0.0000000e+00  -0.0000000e+00  -0.0000000e+00  -0.0000000e+00  -0.0000000e+00  -0.0000000e+00
-0.0000000e+00  -0.0000000e+00  -0.0000000e+00  -0.0000000e+00  -0.0000000e+00  -0.0000000e+00  -0.0000000e+00  -0.0000000e+00  -0.0000000e+00  -0.0000000e+00  -0.0000000e+00   8.2776765e+00   2.8632466e+01   5.3261579e+01   8.0038337e+01   1.0890064e+02   1.4498116e+02   1.6073947e+02   1.6744893e+02   1.7413529e+02   1.8343775e+02   1.8495980e+02   1.8328967e+02   1.8043640e+02   1.7109746e+02   1.6334536e+02   1.5527321e+02   1.5058290e+02   1.3942037e+02   1.3496105e+02   1.1521484e+02   1.0916570e+02   1.0219673e+02   9.1754247e+01   7.7308659e+01   7.1279473e+01   7.7642591e+01   5.1086884e+01   5.4317916e+01   4.7596630e+01   3.4452367e+01   2.4716049e+01   1.5529709e+01  -0.0000000e+00  -0.0000000e+00  -0.0000000e+00  -0.0000000e+00  -0.0000000e+00  -0.0000000e+00  -0.0000000e+00  -0.0000000e+00  -0.0000000e+00  -0.0000000e+00  -0.0000000e+00  -0.0000000e+00  -0.0000000e+00  -0.0000000e+00  -0.0000000e+00  -0.0000000e+00  -0.0000000e+00  -0.0000000e+00
-0.0000000e+00  -0.0000000e+00  -0.0000000e+00  -0.0000000e+00  -0.0000000e+00  -0.0000000e+00  -0.0000000e+00  -0.0000000e+00  -0.0000000e+00  -0.0000000e+00  -0.0000000e+00   1.0970882e+01   3.0325422e+01   5.1621205e+01   7.7090233e+01   1.0708353e+02   1.4116807e+02   1.6176035e+02   1.6937459e+02   1.7430042e+02   1.8299242e+02   1.8757944e+02   1.8398626e+02   1.8063165e+02   1.7338497e+02   1.6621823e+02   1.5869309e+02   1.4964474e+02   1.4386135e+02   1.3931088e+02   1.2545795e+02   1.0906140e+02   1.0274550e+02   9.3517982e+01   8.0916968e+01   6.9724054e+01   7.7552091e+01   6.7511233e+01   4.7527659e+01   4.6716099e+01   3.9218168e+01   2.1469702e+01   1.1859835e+01  -0.0000000e+00  -0.0000000e+00  -0.0000000e+00  -0.0000000e+00  -0.0000000e+00  -0.0000000e+00  -0.0000000e+00  -0.0000000e+00  -0.0000000e+00  -0.0000000e+00  -0.0000000e+00  -0.0000000e+00  -0.0000000e+00  -0.0000000e+00  -0.0000000e+00  -0.0000000e+00  -0.0000000e+00  -0.0000000e+00
-0.0000000e+00  -0.0000000e+00  -0.0000000e+00  -0.0000000e+00  -0.0000000e+00  -0.0000000e+00  -0.0000000e+00  -0.0000000e+00  -0.0000000e+00  -0.0000000e+00  -0.0000000e+00   6.4744826e+00   3.4247787e+01   5.1883515e+01   8.0005968e+01   1.0889854e+02   1.4144590e+02   1.6088587e+02   1.7093180e+02   1.7435035e+02   1.8157062e+02   1.8954206e+02   1.8448406e+02   1.8155886e+02   1.7521222e+02   1.6671348e+02   1.5698182e+02   1.4755554e+02   1.4427432e+02   1.3706631e+02   1.2572087e+02   1.1343766e+02   1.0419213e+02   9.3149957e+01   8.1784847e+01   7.1415452e+01   6.6440780e+01   7.3746847e+01   4.9362291e+01   4.9499394e+01   4.1183866e+01   2.9306842e+01   1.7276342e+01   2.4514307e+00  -0.0000000e+00  -0.0000000e+00  -0.0000000e+00  -0.0000000e+00  -0.0000000e+00  -0.0000000e+00  -0.0000000e+00  -0.0000000e+00  -0.0000000e+00  -0.0000000e+00  -0.0000000e+00  -0.0000000e+00  -0.0000000e+00  -0.0000000e+00  -0.0000000e+00  -0.0000000e+00   1.9179691e+02
-0.0000000e+00  -0.0000000e+00  -0.0000000e+00  -0.0000000e+00  -0.0000000e+00  -0.0000000e+00  -0.0000000e+00  -0.0000000e+00  -0.0000000e+00  -0.0000000e+00  -0.0000000e+00   4.3967398e+00   3.7296257e+01   5.6527400e+01   7.6937517e+01   1.0534761e+02   1.3347060e+02   1.5858801e+02   1.7057689e+02   1.7577309e+02   1.8135433e+02   1.9031099e+02   1.8478027e+02   1.8060412e+02   1.7389791e+02   1.7200104e+02   1.5848829e+02   1.4920850e+02   1.4194827e+02   1.3807307e+02   1.2890562e+02   1.1424683e+02   1.0575741e+02   8.1748594e+01   8.1936403e+01   6.7461401e+01   6.8818130e+01   7.3506851e+01   6.3600609e+01   4.9751409e+01   4.4310718e+01   3.2506250e+01   1.8450452e+01  -0.0000000e+00  -0.0000000e+00  -0.0000000e+00  -0.0000000e+00  -0.0000000e+00  -0.0000000e+00  -0.0000000e+00  -0.0000000e+00  -0.0000000e+00  -0.0000000e+00  -0.0000000e+00  -0.0000000e+00  -0.0000000e+00  -0.0000000e+00  -0.0000000e+00  -0.0000000e+00  -0.0000000e+00  -0.0000000e+00
-0.0000000e+00  -0.0000000e+00  -0.0000000e+00  -0.0000000e+00  -0.0000000e+00  -0.0000000e+00  -0.0000000e+00  -0.0000000e+00  -0.0000000e+00  -0.0000000e+00  -0.0000000e+00   2.8933872e+00   3.8058284e+01   6.2393247e+01   8.1516813e+01   1.0541701e+02   1.3403325e+02   1.5903420e+02   1.6669763e+02   1.7334773e+02   1.7743132e+02   1.8950125e+02   1.8532740e+02   1.8231604e+02   1.7529520e+02   1.6953491e+02   1.6054237e+02   1.4821932e+02   1.4034295e+02   1.3838305e+02   1.3018820e+02   1.1501890e+02   1.0322710e+02   8.9055258e+01   7.9761873e+01   6.8900909e+01   6.8893644e+01   7.0610984e+01   6.3730568e+01   5.6045206e+01   4.5111643e+01   3.4217737e+01   1.9664139e+01   3.2118498e+00  -0.0000000e+00  -0.0000000e+00  -0.0000000e+00  -0.0000000e+00  -0.0000000e+00  -0.0000000e+00  -0.0000000e+00  -0.0000000e+00  -0.0000000e+00  -0.0000000e+00  -0.0000000e+00  -0.0000000e+00  -0.0000000e+00  -0.0000000e+00  -0.0000000e+00  -0.0000000e+00   7.0631376e+01
-0.0000000e+00  -0.0000000e+00  -0.0000000e+00  -0.0000000e+00  -0.0000000e+00  -0.0000000e+00  -0.0000000e+00  -0.0000000e+00  -0.0000000e+00  -0.0000000e+00  -0.0000000e+00   2.9254205e+00   3.7824900e+01   6.3431877e+01   8.4508984e+01   1.0658402e+02   1.3656150e+02   1.5404552e+02   1.6689706e+02   1.7350357e+02   1.7790490e+02   1.8851498e+02   1.8670820e+02   1.8360381e+02   1.7636982e+02   1.6833546e+02   1.6627882e+02   1.5113158e+02   1.4410736e+02   1.3952801e+02   1.3032884e+02   1.2032850e+02   1.0658733e+02   9.2637940e+01   7.9103592e+01   7.3221320e+01   6.9590802e+01   6.8553262e+01   6.3763811e+01   6.2667841e+01   4.6502806e+01   3.5422745e+01   1.6245265e+01   3.6530921e+00  -0.0000000e+00  -0.0000000e+00  -0.0000000e+00  -0.0000000e+00  -0.0000000e+00  -0.0000000e+00  -0.0000000e+00  -0.0000000e+00  -0.0000000e+00  -0.0000000e+00  -0.0000000e+00  -0.0000000e+00  -0.0000000e+00  -0.0000000e+00  -0.0000000e+00  -0.0000000e+00  -0.0000000e+00
-0.0000000e+00  -0.0000000e+00  -0.0000000e+00  -0.0000000e+00  -0.0000000e+00  -0.0000000e+00  -0.0000000e+00  -0.0000000e+00  -0.0000000e+00  -0.0000000e+00  -0.0000000e+00   3.0867717e+00   3.5585182e+01   6.7228900e+01   8.6224555e+01   1.0615593e+02   1.3686600e+02   1.5660299e+02   1.7051557e+02   1.7616606e+02   1.7888417e+02   1.8572133e+02   1.8822512e+02   1.8360044e+02   1.8045846e+02   1.6815826e+02   1.6583432e+02   1.5195145e+02   1.4450761e+02   1.3626566e+02   1.3138018e+02   1.2210958e+02   1.1070339e+02   9.2424644e+01   8.0179929e+01   7.4397674e+01   6.6834178e+01   6.4645889e+01   6.3929744e+01   6.1812806e+01   5.0547653e+01   3.5231497e+01   1.8372510e+01   6.3930263e+00  -0.0000000e+00  -0.0000000e+00  -0.0000000e+00  -0.0000000e+00  -0.0000000e+00  -0.0000000e+00  -0.0000000e+00  -0.0000000e+00  -0.0000000e+00  -0.0000000e+00  -0.0000000e+00  -0.0000000e+00  -0.0000000e+00  -0.0000000e+00  -0.0000000e+00  -0.0000000e+00  -0.0000000e+00
-0.0000000e+00  -0.0000000e+00  -0.0000000e+00  -0.0000000e+00  -0.0000000e+00  -0.0000000e+00  -0.0000000e+00  -0.0000000e+00  -0.0000000e+00  -0.0000000e+00  -0.0000000e+00   4.9254101e+00   3.4322762e+01   6.9410831e+01   9.0520871e+01   1.0812492e+02   1.3717221e+02   1.5726950e+02   1.7101699e+02   1.7608474e+02   1.8151599e+02   1.8436555e+02   1.8515834e+02   1.8350371e+02   1.8009870e+02   1.6782754e+02   1.6363687e+02   1.5581283e+02   1.4404987e+02   1.3456310e+02   1.3014401e+02   1.2393089e+02   1.1256873e+02   9.0553404e+01   7.8911581e+01   7.3702679e+01   6.6742021e+01   6.8149474e+01   6.5199238e+01   5.8197581e+01   5.5041064e+01   3.8697408e+01   2.2512579e+01   1.2617953e+01  -0.0000000e+00  -0.0000000e+00  -0.0000000e+00  -0.0000000e+00  -0.0000000e+00  -0.0000000e+00  -0.0000000e+00  -0.0000000e+00  -0.0000000e+00  -0.0000000e+00  -0.0000000e+00  -0.0000000e+00  -0.0000000e+00  -0.0000000e+00  -0.0000000e+00  -0.0000000e+00   2.2600000e+02
-0.0000000e+00  -0.0000000e+00  -0.0000000e+00  -0.0000000e+00  -0.0000000e+00  -0.0000000e+00  -0.0000000e+00  -0.0000000e+00  -0.0000000e+00  -0.0000000e+00  -0.0000000e+00   7.3409541e+00   3.4192023e+01   7.0792822e+01   9.6080175e+01   1.1019917e+02   1.3691875e+02   1.5596694e+02   1.6890346e+02   1.7367181e+02   1.7970380e+02   1.7435591e+02   1.8423380e+02   1.8370360e+02   1.8178481e+02   1.7133405e+02   1.6341238e+02   1.5712174e+02   1.4875494e+02   1.3764992e+02   1.3183703e+02   1.2505779e+02   1.1147503e+02   9.5843488e+01   7.7009768e+01   7.1557802e+01   6.8237319e+01   6.7702446e+01   5.8747407e+01   5.7847858e+01   5.6442303e+01   4.2343307e+01   2.6421751e+01   1.2571684e+01  -0.0000000e+00  -0.0000000e+00  -0.0000000e+00  -0.0000000e+00  -0.0000000e+00  -0.0000000e+00  -0.0000000e+00  -0.0000000e+00  -0.0000000e+00  -0.0000000e+00  -0.0000000e+00  -0.0000000e+00  -0.0000000e+00  -0.0000000e+00  -0.0000000e+00  -0.0000000e+00   1.9382821e+02
-0.0000000e+00  -0.0000000e+00  -0.0000000e+00  -0.0000000e+00  -0.0000000e+00  -0.0000000e+00  -0.0000000e+00  -0.0000000e+00  -0.0000000e+00  -0.0000000e+00  -0.0000000e+00   1.1332813e+01   3.4876346e+01   7.2933681e+01   1.0142197e+02   1.1592047e+02   1.3412427e+02   1.5305509e+02   1.6790423e+02   1.7416435e+02   1.7759244e+02   1.7519103e+02   1.8541687e+02   1.8350360e+02   1.7981562e+02   1.7118254e+02   1.6122904e+02   1.5880464e+02   1.4510988e+02   1.3641087e+02   1.2853676e+02   1.2032479e+02   1.1253682e+02   1.0222534e+02   8.3345363e+01   6.6892651e+01   7.1807248e+01   6.6862695e+01   4.9648481e+01   5.6571673e+01   5.4774311e+01   4.5961036e+01   2.8217791e+01   1.7026262e+01  -0.0000000e+00  -0.0000000e+00  -0.0000000e+00  -0.0000000e+00  -0.0000000e+00  -0.0000000e+00  -0.0000000e+00  -0.0000000e+00  -0.0000000e+00  -0.0000000e+00  -0.0000000e+00  -0.0000000e+00  -0.0000000e+00  -0.0000000e+00  -0.0000000e+00  -0.0000000e+00  -0.0000000e+00
-0.0000000e+00  -0.0000000e+00  -0.0000000e+00  -0.0000000e+00  -0.0000000e+00  -0.0000000e+00  -0.0000000e+00  -0.0000000e+00  -0.0000000e+00  -0.0000000e+00  -0.0000000e+00   1.2807549e+01   3.3253137e+01   7.3540451e+01   1.0298443e+02   1.2226508e+02   1.3668017e+02   1.5578271e+02   1.6870063e+02   1.7489518e+02   1.7768821e+02   1.7441165e+02   1.8284612e+02   1.8360979e+02   1.7984030e+02   1.7280391e+02   1.6440143e+02   1.6181579e+02   1.4911326e+02   1.3904450e+02   1.3187653e+02   1.2620264e+02   1.1316450e+02   9.9520871e+01   8.7538699e+01   7.8194688e+01   6.7831526e+01   6.6214238e+01   5.3494306e+01   5.5550696e+01   4.7554123e+01   4.5511878e+01   2.8522235e+01   1.9825445e+01  -0.0000000e+00  -0.0000000e+00  -0.0000000e+00  -0.0000000e+00  -0.0000000e+00  -0.0000000e+00  -0.0000000e+00  -0.0000000e+00  -0.0000000e+00  -0.0000000e+00  -0.0000000e+00  -0.0000000e+00  -0.0000000e+00  -0.0000000e+00  -0.0000000e+00  -0.0000000e+00  -0.0000000e+00
-0.0000000e+00  -0.0000000e+00  -0.0000000e+00  -0.0000000e+00  -0.0000000e+00  -0.0000000e+00  -0.0000000e+00  -0.0000000e+00  -0.0000000e+00  -0.0000000e+00  -0.0000000e+00   9.6608872e+00   4.3302450e+01   7.4661861e+01   1.0398614e+02   1.2424427e+02   1.3691721e+02   1.5299228e+02   1.6694613e+02   1.7207505e+02   1.7293105e+02   1.7291949e+02   1.8014470e+02   1.7964963e+02   1.7778567e+02   1.7046596e+02   1.6333836e+02   1.5778477e+02   1.4379154e+02   1.3738513e+02   1.3084908e+02   1.2084876e+02   1.1133472e+02   1.0324410e+02   8.7365210e+01   7.7287442e+01   7.1664387e+01   6.2722155e+01   5.5409809e+01   5.2578622e+01   4.1433994e+01   4.3199465e+01   3.2452019e+01   1.8896716e+01   3.9802169e+00  -0.0000000e+00  -0.0000000e+00  -0.0000000e+00  -0.0000000e+00  -0.0000000e+00  -0.0000000e+00  -0.0000000e+00  -0.0000000e+00  -0.0000000e+00  -0.0000000e+00  -0.0000000e+00  -0.0000000e+00  -0.0000000e+00  -0.0000000e+00  -0.0000000e+00   7.3534171e+00
-0.0000000e+00  -0.0000000e+00  -0.0000000e+00  -0.0000000e+00  -0.0000000e+00  -0.0000000e+00  -0.0000000e+00  -0.0000000e+00  -0.0000000e+00  -0.0000000e+00  -0.0000000e+00   1.6232592e+01   4.9302582e+01   7.4538081e+01   1.0705067e+02   1.2530226e+02   1.3907673e+02   1.4976858e+02   1.6478510e+02   1.6886496e+02   1.6859890e+02   1.6681417e+02   1.8170069e+02   1.7960683e+02   1.7677817e+02   1.6943477e+02   1.6154901e+02   1.4969545e+02   1.4212381e+02   1.3724142e+02   1.3296180e+02   1.2106709e+02   1.1545908e+02   1.0636522e+02   8.6375373e+01   7.8321534e+01   7.2459135e+01   6.6324026e+01   5.7255441e+01   4.3575147e+01   4.5580877e+01   4.4357346e+01   3.7624386e+01   2.0498485e+01   8.9716339e-01  -0.0000000e+00  -0.0000000e+00  -0.0000000e+00  -0.0000000e+00  -0.0000000e+00  -0.0000000e+00  -0.0000000e+00  -0.0000000e+00  -0.0000000e+00  -0.0000000e+00  -0.0000000e+00  -0.0000000e+00  -0.0000000e+00  -0.0000000e+00  -0.0000000e+00  -0.0000000e+00
-0.0000000e+00  -0.0000000e+00  -0.0000000e+00  -0.0000000e+00  -0.0000000e+00  -0.0000000e+00  -0.0000000e+00  -0.0000000e+00  -0.0000000e+00  -0.0000000e+00   2.2007946e+00   2.1047454e+01   5.2638678e+01   7.6005909e+01   1.0826405e+02   1.2804624e+02   1.4236187e+02   1.4950860e+02   1.6556623e+02   1.7389315e+02   1.7389608e+02   1.6729452e+02   1.8141513e+02   1.8201849e+02   1.7787186e+02   1.6918342e+02   1.6333978e+02   1.6005921e+02   1.4852870e+02   1.3680446e+02   1.2649800e+02   1.1990876e+02   1.1352976e+02   1.0462802e+02   9.4457121e+01   8.3160025e+01   7.3698319e+01   6.7597172e+01   5.5815638e+01   3.5937803e+01   4.4470139e+01   4.1548304e+01   3.8337622e+01   2.4792016e+01   2.2800239e+00  -0.0000000e+00  -0.0000000e+00  -0.0000000e+00  -0.0000000e+00  -0.0000000e+00  -0.0000000e+00  -0.0000000e+00  -0.0000000e+00  -0.0000000e+00  -0.0000000e+00  -0.0000000e+00  -0.0000000e+00  -0.0000000e+00  -0.0000000e+00  -0.0000000e+00  -0.0000000e+00
-0.0000000e+00  -0.0000000e+00  -0.0000000e+00  -0.0000000e+00  -0.0000000e+00  -0.0000000e+00  -0.0000000e+00  -0.0000000e+00  -0.0000000e+00  -0.0000000e+00   3.3856781e+00   3.1760290e+01   5.7599516e+01   7.7509752e+01   1.1553124e+02   1.3512505e+02   1.4103566e+02   1.4832993e+02   1.6586226e+02   1.7072257e+02   1.7137067e+02   1.7131725e+02   1.8089325e+02   1.8353112e+02   1.7876574e+02   1.7438599e+02   1.6594104e+02   1.5807875e+02   1.5223779e+02   1.3887854e+02   1.3043357e+02   1.1127154e+02   1.1274973e+02   1.0553205e+02   9.4646830e+01   8.4756971e+01   7.5920430e+01   6.8916001e+01   5.6438170e+01   4.9935803e+01   4.1595333e+01   4.1103830e+01   3.7709840e+01   2.9556046e+01   7.9936607e+00  -0.0000000e+00  -0.0000000e+00  -0.0000000e+00  -0.0000000e+00  -0.0000000e+00  -0.0000000e+00  -0.0000000e+00  -0.0000000e+00  -0.0000000e+00  -0.0000000e+00  -0.0000000e+00  -0.0000000e+00  -0.0000000e+00  -0.0000000e+00  -0.0000000e+00   1.7622797e+02
-0.0000000e+00  -0.0000000e+00  -0.0000000e+00  -0.0000000e+00  -0.0000000e+00  -0.0000000e+00  -0.0000000e+00  -0.0000000e+00  -0.0000000e+00  -0.0000000e+00   9.7918666e+00   4.1949036e+01   6.1468017e+01   8.1279134e+01   1.1668248e+02   1.3026619e+02   1.3759752e+02   1.4285693e+02   1.5451212e+02   1.6287388e+02   1.6710248e+02   1.6766802e+02   1.7717271e+02   1.8176231e+02   1.7417711e+02   1.7639025e+02   1.6082021e+02   1.5194585e+02   1.4850104e+02   1.3806135e+02   1.2810213e+02   1.1571954e+02   1.1244786e+02   1.0541675e+02   9.5436368e+01   8.4595432e+01   7.7933091e+01   6.8592491e+01   5.7240949e+01   5.1437168e+01   4.5609330e+01   3.9648303e+01   3.7521655e+01   2.8760223e+01   1.2496619e+01  -0.0000000e+00  -0.0000000e+00  -0.0000000e+00  -0.0000000e+00  -0.0000000e+00  -0.0000000e+00  -0.0000000e+00  -0.0000000e+00  -0.0000000e+00  -0.0000000e+00  -0.0000000e+00  -0.0000000e+00  -0.0000000e+00  -0.0000000e+00  -0.0000000e+00  -0.0000000e+00
-0.0000000e+00  -0.0000000e+00  -0.0000000e+00  -0.0000000e+00  -0.0000000e+00  -0.0000000e+00  -0.0000000e+00  -0.0000000e+00  -0.0000000e+00  -0.0000000e+00   1.2771917e+01   4.5631011e+01   6.4257634e+01   8.4738659e+01   1.1921500e+02   1.3042862e+02   1.3226407e+02   1.4194490e+02   1.5634438e+02   1.6326118e+02   1.6570382e+02   1.6332980e+02   1.7187808e+02   1.7759118e+02   1.7487046e+02   1.7140499e+02   1.6464223e+02   1.5105120e+02   1.4621041e+02   1.3949689e+02   1.2659876e+02   1.1662745e+02   1.1106585e+02   1.0584145e+02   9.2596732e+01   8.1662429e+01   7.7701372e+01   6.5283295e+01   5.8667144e+01   5.1151786e+01   4.6903282e+01   3.9059480e+01   3.8021379e+01   2.0170588e+01   1.6443358e+01   4.3109482e+00  -0.0000000e+00  -0.0000000e+00  -0.0000000e+00  -0.0000000e+00  -0.0000000e+00  -0.0000000e+00  -0.0000000e+00  -0.0000000e+00  -0.0000000e+00  -0.0000000e+00  -0.0000000e+00  -0.0000000e+00  -0.0000000e+00  -0.0000000e+00   4.8204141e+01
-0.0000000e+00  -0.0000000e+00  -0.0000000e+00  -0.0000000e+00  -0.0000000e+00  -0.0000000e+00  -0.0000000e+00  -0.0000000e+00  -0.0000000e+00  -0.0000000e+00   1.5251681e+01   4.9275445e+01   6.9014580e+01   9.0852937e+01   1.1971984e+02   1.3124355e+02   1.3129606e+02   1.3765036e+02   1.5468102e+02   1.6390390e+02   1.5449111e+02   1.6446326e+02   1.7598845e+02   1.7012927e+02   1.6828148e+02   1.7190210e+02   1.6389042e+02   1.5416991e+02   1.4456992e+02   1.3587211e+02   1.2660738e+02   1.1999511e+02   1.0973100e+02   1.0202404e+02   8.8830834e+01   8.4326725e+01   7.8802123e+01   6.6946179e+01   5.8941123e+01   4.8652091e+01   4.5873222e+01   4.0422932e+01   3.6468366e+01   1.9154207e+01   1.6000093e+01   8.8140258e+00  -0.0000000e+00  -0.0000000e+00  -0.0000000e+00  -0.0000000e+00  -0.0000000e+00  -0.0000000e+00  -0.0000000e+00  -0.0000000e+00  -0.0000000e+00  -0.0000000e+00  -0.0000000e+00  -0.0000000e+00  -0.0000000e+00  -0.0000000e+00   4.5579795e+01
-0.0000000e+00  -0.0000000e+00  -0.0000000e+00  -0.0000000e+00  -0.0000000e+00  -0.0000000e+00  -0.0000000e+00  -0.0000000e+00  -0.0000000e+00   3.5798259e-01   1.5137924e+01   5.3300702e+01   7.0058763e+01   9.5977982e+01   1.2137128e+02   1.3410662e+02   1.3523116e+02   1.4797843e+02   1.5661828e+02   1.6651414e+02   1.5213274e+02   1.5651811e+02   1.7365009e+02   1.6992684e+02   1.6030335e+02   1.6290313e+02   1.5974798e+02   1.5398100e+02   1.4317940e+02   1.3532504e+02   1.2571220e+02   1.1713378e+02   1.0857015e+02   9.7284416e+01   8.4681586e+01   7.9015286e+01   7.7207217e+01   6.7540448e+01   6.0125135e+01   5.0172231e+01   4.2834450e+01   4.0078893e+01   3.4680044e+01   1.9986702e+01   2.0134819e+01   1.1042134e+01  -0.0000000e+00  -0.0000000e+00  -0.0000000e+00  -0.0000000e+00  -0.0000000e+00  -0.0000000e+00  -0.0000000e+00  -0.0000000e+00  -0.0000000e+00  -0.0000000e+00  -0.0000000e+00  -0.0000000e+00  -0.0000000e+00  -0.0000000e+00  -0.0000000e+00
-0.0000000e+00  -0.0000000e+00  -0.0000000e+00  -0.0000000e+00  -0.0000000e+00  -0.0000000e+00  -0.0000000e+00  -0.0000000e+00  -0.0000000e+00   2.3029224e+00   1.8283273e+01   5.6185786e+01   7.2201327e+01   9.7603476e+01   1.2383444e+02   1.3429998e+02   1.3881552e+02   1.4872241e+02   1.5783584e+02   1.7090155e+02   1.6260103e+02   1.5087106e+02   1.4809558e+02   1.7063650e+02   1.6714212e+02   1.5802351e+02   1.5501370e+02   1.5225104e+02   1.4177766e+02   1.3394225e+02   1.2384050e+02   1.1655773e+02   1.0545699e+02   9.5383735e+01   8.6935566e+01   8.1542515e+01   7.1087429e+01   6.3344279e+01   5.6142601e+01   4.7408679e+01   4.5100595e+01   3.1460542e+01   2.9307005e+01   1.2037772e+01   1.3485776e+01   8.7177298e+00   1.0202267e+00  -0.0000000e+00  -0.0000000e+00  -0.0000000e+00  -0.0000000e+00  -0.0000000e+00  -0.0000000e+00  -0.0000000e+00  -0.0000000e+00  -0.0000000e+00  -0.0000000e+00  -0.0000000e+00  -0.0000000e+00  -0.0000000e+00  -0.0000000e+00
-0.0000000e+00  -0.0000000e+00  -0.0000000e+00  -0.0000000e+00  -0.0000000e+00  -0.0000000e+00  -0.0000000e+00  -0.0000000e+00  -0.0000000e+00   2.6321508e+00   2.2887606e+01   6.0893736e+01   7.6556649e+01   9.6357801e+01   1.2306760e+02   1.3435740e+02   1.3895076e+02   1.5271718e+02   1.6083993e+02   1.7406390e+02   1.7121918e+02   1.6075526e+02   1.5393075e+02   1.4702716e+02   1.6355329e+02   1.5744349e+02   1.4963690e+02   1.4632291e+02   1.3527399e+02   1.2828418e+02   1.2395547e+02   1.1414843e+02   1.0608888e+02   9.5724691e+01   8.3852924e+01   8.0139607e+01   7.1837303e+01   6.3601709e+01   5.3712832e+01   4.8095155e+01   4.5364442e+01   3.5201235e+01   3.0434186e+01   2.4036920e+01  -0.0000000e+00   6.1843468e+00   2.0698403e+00  -0.0000000e+00  -0.0000000e+00  -0.0000000e+00  -0.0000000e+00  -0.0000000e+00  -0.0000000e+00  -0.0000000e+00  -0.0000000e+00  -0.0000000e+00  -0.0000000e+00  -0.0000000e+00  -0.0000000e+00  -0.0000000e+00   1.4759177e+01
-0.0000000e+00  -0.0000000e+00  -0.0000000e+00  -0.0000000e+00  -0.0000000e+00  -0.0000000e+00  -0.0000000e+00  -0.0000000e+00  -0.0000000e+00   7.8961358e+00   2.6868567e+01   6.3649941e+01   7.9903935e+01   1.1023123e+02   1.1929469e+02   1.2761945e+02   1.4026306e+02   1.5349741e+02   1.6087615e+02   1.7224437e+02   1.7541653e+02   1.7034467e+02   1.6413446e+02   1.5859983e+02   1.4194536e+02   1.6029202e+02   1.5010040e+02   1.4269605e+02   1.3117356e+02   1.2464587e+02   1.1854424e+02   1.1269153e+02   1.0082078e+02   9.1190546e+01   7.7624338e+01   7.6996935e+01   7.0776680e+01   6.4839612e+01   5.6532046e+01   4.7841861e+01   4.0541480e+01   3.6731742e+01   2.2515589e+01   2.4083772e+01   1.4461881e+01  -0.0000000e+00   1.8659369e-01  -0.0000000e+00  -0.0000000e+00  -0.0000000e+00  -0.0000000e+00  -0.0000000e+00  -0.0000000e+00  -0.0000000e+00  -0.0000000e+00  -0.0000000e+00  -0.0000000e+00  -0.0000000e+00  -0.0000000e+00  -0.0000000e+00  -0.0000000e+00
-0.0000000e+00  -0.0000000e+00  -0.0000000e+00  -0.0000000e+00  -0.0000000e+00  -0.0000000e+00   0.0000000e+00  -0.0000000e+00   4.9007741e+00   1.1233991e+01   3.5271657e+01   6.7928327e+01   8.6994028e+01   1.1782785e+02   1.2408874e+02   1.2551874e+02   1.4705863e+02   1.5207046e+02   1.5954320e+02   1.7404433e+02   1.7570582e+02   1.7411199e+02   1.6714254e+02   1.6105298e+02   1.5458069e+02   1.4282194e+02   1.5115760e+02   1.3605003e+02   1.2361654e+02   1.1132633e+02   1.0771599e+02   1.0048474e+02   9.5639337e+01   8.5570824e+01   7.2792098e+01   6.8041252e+01   7.0266043e+01   6.5259154e+01   5.5696064e+01   4.8917855e+01   4.2391616e+01   3.4803328e+01   2.9933972e+01   1.9437003e+01   1.7574978e+01  -0.0000000e+00   1.7325589e+00   1.6402587e+00  -0.0000000e+00  -0.0000000e+00  -0.0000000e+00  -0.0000000e+00  -0.0000000e+00  -0.0000000e+00  -0.0000000e+00  -0.0000000e+00  -0.0000000e+00  -0.0000000e+00  -0.0000000e+00  -0.0000000e+00  -0.0000000e+00
-0.0000000e+00  -0.0000000e+00  -0.0000000e+00  -0.0000000e+00  -0.0000000e+00  -0.0000000e+00  -0.0000000e+00   4.3448244e+00   1.1378430e+01   2.0131908e+01   4.7567131e+01   6.9072566e+01   9.8011149e+01   1.2429273e+02   1.3737100e+02   1.3740801e+02   1.5134147e+02   1.5144831e+02   1.5827133e+02   1.7332245e+02   1.7590417e+02   1.7590399e+02   1.7075088e+02   1.6398128e+02   1.5510086e+02   1.4541958e+02   1.4051349e+02   1.2339271e+02   1.2276248e+02   1.0920550e+02   9.9843031e+01   9.2674270e+01   8.6577486e+01   7.8584377e+01   7.1441381e+01   6.6992544e+01   6.6345424e+01   6.2942766e+01   5.5866867e+01   4.9022747e+01   4.1550660e+01   3.6692153e+01   2.9688149e+01   2.0815158e+01   1.7295253e+01   1.0600720e+01   1.5024528e+00  -0.0000000e+00  -0.0000000e+00  -0.0000000e+00  -0.0000000e+00  -0.0000000e+00  -0.0000000e+00  -0.0000000e+00  -0.0000000e+00  -0.0000000e+00  -0.0000000e+00  -0.0000000e+00  -0.0000000e+00  -0.0000000e+00  -0.0000000e+00
-0.0000000e+00  -0.0000000e+00  -0.0000000e+00  -0.0000000e+00  -0.0000000e+00  -0.0000000e+00   4.0355538e+00   1.0368893e+01   1.6328709e+01   2.8451721e+01   5.1342617e+01   7.3633448e+01   1.0519758e+02   1.2942923e+02   1.4740618e+02   1.4651761e+02   1.5352172e+02   1.5349059e+02   1.6061338e+02   1.7218807e+02   1.7527014e+02   1.7389093e+02   1.7030219e+02   1.6207789e+02   1.5491031e+02   1.4457351e+02   1.2694587e+02   1.1101400e+02   9.6474194e+01   8.6921044e+01   9.0642460e+01   9.0100187e+01   8.5160435e+01   7.3649352e+01   7.0193665e+01   6.3210346e+01   6.2526963e+01   6.1003468e+01   5.3646990e+01   4.8709679e+01   4.2511436e+01   3.6807018e+01   2.5662533e+01   1.9338805e+01   1.3291286e+01   1.0978884e+01   5.3816681e+00  -0.0000000e+00  -0.0000000e+00  -0.0000000e+00  -0.0000000e+00  -0.0000000e+00  -0.0000000e+00  -0.0000000e+00  -0.0000000e+00  -0.0000000e+00  -0.0000000e+00  -0.0000000e+00  -0.0000000e+00  -0.0000000e+00  -0.0000000e+00
-0.0000000e+00  -0.0000000e+00  -0.0000000e+00  -0.0000000e+00  -0.0000000e+00  -0.0000000e+00   1.1198439e+01   1.3468634e+01   2.2639575e+01   3.6995354e+01   6.0705501e+01   8.2245134e+01   1.1377966e+02   1.3702863e+02   1.5016749e+02   1.4935523e+02   1.5269820e+02   1.5528492e+02   1.6016974e+02   1.7078301e+02   1.7349692e+02   1.7441839e+02   1.6858346e+02   1.6040165e+02   1.5307864e+02   1.3989275e+02   1.2608985e+02   1.1437115e+02   1.0026397e+02   8.2667765e+01   7.6962796e+01   8.4844330e+01   8.0933433e+01   7.3600024e+01   6.4237321e+01   5.6648733e+01   5.9403435e+01   5.6959823e+01   4.9935920e+01   4.4540576e+01   3.7504755e+01   3.4636088e+01   2.5936594e+01   1.7922234e+01   6.4975788e+00   1.0015868e+01   6.4614673e+00   2.2549055e-01   9.8956686e+00  -0.0000000e+00  -0.0000000e+00  -0.0000000e+00  -0.0000000e+00  -0.0000000e+00  -0.0000000e+00  -0.0000000e+00  -0.0000000e+00  -0.0000000e+00  -0.0000000e+00  -0.0000000e+00   4.5864287e+01
-0.0000000e+00  -0.0000000e+00  -0.0000000e+00  -0.0000000e+00  -0.0000000e+00   5.7293231e+00   1.5805464e+01   2.0628947e+01   3.1343577e+01   4.5021515e+01   6.6822869e+01   9.7863652e+01   1.2462196e+02   1.4834219e+02   1.5374354e+02   1.5521999e+02   1.5360055e+02   1.6150575e+02   1.5688177e+02   1.6953065e+02   1.7485035e+02   1.7600762e+02   1.6963432e+02   1.5741871e+02   1.5228494e+02   1.3966833e+02   1.2664181e+02   1.1460753e+02   9.6682525e+01   8.3136706e+01   7.0948461e+01   6.8568473e+01   6.1245811e+01   4.5288122e+01   4.1085148e+01   4.8195766e+01   5.4700203e+01   5.2913592e+01   4.7525726e+01   4.1266685e+01   3.7629357e+01   3.2793797e+01   2.2577456e+01   1.7908968e+01   1.2771081e+01   9.7488345e+00   2.0270081e-01   2.0270081e-01  -0.0000000e+00  -0.0000000e+00  -0.0000000e+00  -0.0000000e+00  -0.0000000e+00  -0.0000000e+00  -0.0000000e+00  -0.0000000e+00  -0.0000000e+00  -0.0000000e+00  -0.0000000e+00  -0.0000000e+00  -0.0000000e+00
-0.0000000e+00  -0.0000000e+00  -0.0000000e+00  -0.0000000e+00   3.2593766e+00   1.1174494e+01   1.9586930e+01   2.6599811e+01   3.7638589e+01   3.5375704e+01   7.0512548e+01   1.0483872e+02   1.3168082e+02   1.5607010e+02   1.6287389e+02   1.6370423e+02   1.5906203e+02   1.6544888e+02   1.6139228e+02   1.6943870e+02   1.7683623e+02   1.7692086e+02   1.7573006e+02   1.5415262e+02   1.4675398e+02   1.3972744e+02   1.2854436e+02   1.1587572e+02   9.5595954e+01   8.4104015e+01   7.3710449e+01   7.6952281e+01   6.4929870e+01   5.0591463e+01   4.1307080e+01   3.0626731e+01   4.6390189e+01   4.6192612e+01   4.2736539e+01   3.9892563e+01   3.7982134e+01   3.0643119e+01   1.7235723e+01   1.1115471e+01   5.9849146e+00   0.0000000e+00   2.0270081e-01  -0.0000000e+00  -0.0000000e+00   4.6099160e-01   1.9128032e+00  -0.0000000e+00  -0.0000000e+00  -0.0000000e+00  -0.0000000e+00  -0.0000000e+00  -0.0000000e+00  -0.0000000e+00  -0.0000000e+00  -0.0000000e+00  -0.0000000e+00
-0.0000000e+00  -0.0000000e+00  -0.0000000e+00  -0.0000000e+00   9.2472450e+00   1.8840833e+01   2.4661094e+01   3.2310057e+01   4.4678741e+01   5.7440913e+01   7.2309785e+01   1.0659169e+02   1.3670549e+02   1.6065925e+02   1.5830262e+02   1.6131796e+02   1.6378888e+02   1.5625980e+02   1.5741266e+02   1.6824169e+02   1.7549119e+02   1.7128601e+02   1.6955695e+02   1.5008962e+02   1.4331067e+02   1.3144616e+02   1.2363041e+02   1.1378800e+02   9.4893824e+01   8.5913725e+01   7.5566736e+01   6.9402100e+01   6.5413533e+01   5.4328655e+01   4.9062044e+01   4.9379963e+01   4.7119483e+01   2.6840452e+01   6.8570951e+00   3.9246381e+01   3.4651721e+01   2.3061304e+01   1.7345947e+01   9.8666781e+00  -0.0000000e+00   0.0000000e+00   1.2174409e+00  -0.0000000e+00  -0.0000000e+00  -0.0000000e+00   7.6992964e-01   1.5853453e+00  -0.0000000e+00  -0.0000000e+00  -0.0000000e+00  -0.0000000e+00  -0.0000000e+00  -0.0000000e+00  -0.0000000e+00  -0.0000000e+00  -0.0000000e+00
-0.0000000e+00   5.2410420e+00   1.8063961e+01   2.9177446e-01   1.3351199e+01   2.2667434e+01   2.8467162e+01   3.6481754e+01   5.1507806e+01   6.3447621e+01   7.6257710e+01   1.1679916e+02   1.4766494e+02   1.6645074e+02   1.6510184e+02   1.6402240e+02   1.6670360e+02   1.6098270e+02   1.5753490e+02   1.6771614e+02   1.7600235e+02   1.7088758e+02   1.6779920e+02   1.5387616e+02   1.4569971e+02   1.2850633e+02   1.1970177e+02   1.0839305e+02   9.2222554e+01   8.4418314e+01   8.0306557e+01   7.2817750e+01   6.7597816e+01   6.0119626e+01   4.8508490e+01   5.2603205e+01   3.9952818e+01   3.9595584e+01   2.1999874e+01   4.6115218e+01   1.6431357e+01  -0.0000000e+00   7.9882075e+00   1.1711095e+00  -0.0000000e+00   0.0000000e+00  -0.0000000e+00  -0.0000000e+00  -0.0000000e+00  -0.0000000e+00  -0.0000000e+00   2.6293922e+00  -0.0000000e+00  -0.0000000e+00  -0.0000000e+00  -0.0000000e+00  -0.0000000e+00  -0.0000000e+00  -0.0000000e+00  -0.0000000e+00  -0.0000000e+00
-0.0000000e+00  -0.0000000e+00  -0.0000000e+00  -0.0000000e+00   5.7132662e+00   2.3196890e+01   3.1722647e+01   4.2065150e+01   6.1012570e+01   7.4547332e+01   1.1376661e+02   1.3828598e+02   1.5475744e+02   1.7461539e+02   1.7111790e+02   1.6730201e+02   1.7371221e+02   1.6449661e+02   1.5992944e+02   1.7022185e+02   1.7584139e+02   1.7022093e+02   1.6779299e+02   1.5493430e+02   1.4607465e+02   1.2868183e+02   1.1794987e+02   1.0898657e+02   9.2227744e+01   8.2572024e+01   7.7929753e+01   7.3129774e+01   6.6588804e+01   6.2754936e+01   5.3890601e+01   5.1814264e+01   5.0332197e+01   4.0081120e+01   2.5158990e+01   1.3365103e+01   2.8188660e+01   1.1111700e+01   4.9344058e+00   0.0000000e+00  -0.0000000e+00  -0.0000000e+00  -0.0000000e+00  -0.0000000e+00  -0.0000000e+00  -0.0000000e+00  -0.0000000e+00  -0.0000000e+00   2.5364160e+00  -0.0000000e+00  -0.0000000e+00  -0.0000000e+00  -0.0000000e+00  -0.0000000e+00  -0.0000000e+00  -0.0000000e+00  -0.0000000e+00
-0.0000000e+00  -0.0000000e+00  -0.0000000e+00  -0.0000000e+00  -0.0000000e+00   1.6488534e+01   3.4977756e+01   4.8819405e+01   7.2602359e+01   1.0950319e+02   1.3305900e+02   1.5109727e+02   1.6527237e+02   1.7346328e+02   1.8302604e+02   1.7806251e+02   1.7408175e+02   1.6998904e+02   1.6371779e+02   1.6694280e+02   1.7458146e+02   1.6898455e+02   1.6320954e+02   1.5267832e+02   1.4503760e+02   1.3123671e+02   1.1823673e+02   1.0951535e+02   9.1800584e+01   7.6768759e+01   7.1919669e+01   6.5344999e+01   6.5264482e+01   6.3170322e+01   5.8482814e+01   5.3592918e+01   4.7536714e+01   3.7806772e+01   3.0956033e+01   3.5510334e+01   2.3654395e+01   1.5573129e+01  -0.0000000e+00  -0.0000000e+00  -0.0000000e+00  -0.0000000e+00  -0.0000000e+00  -0.0000000e+00  -0.0000000e+00  -0.0000000e+00  -0.0000000e+00  -0.0000000e+00   3.6039654e+00  -0.0000000e+00  -0.0000000e+00  -0.0000000e+00  -0.0000000e+00  -0.0000000e+00  -0.0000000e+00  -0.0000000e+00  -0.0000000e+00
-0.0000000e+00  -0.0000000e+00  -0.0000000e+00  -0.0000000e+00  -0.0000000e+00   7.6555768e+00   2.8095440e+01   5.1965609e+01   8.3713688e+01   1.2222618e+02   1.4217732e+02   1.5631614e+02   1.7320071e+02   1.7973265e+02   1.8689918e+02   1.8724507e+02   1.8474250e+02   1.7398633e+02   1.7059830e+02   1.7189553e+02   1.7316550e+02   1.7355484e+02   1.6518026e+02   1.5284694e+02   1.4552942e+02   1.3188879e+02   1.1946090e+02   1.1225378e+02   9.7284905e+01   8.2001583e+01   6.9368024e+01   6.2614825e+01   5.9659325e+01   5.8234206e+01   5.7327586e+01   5.3404185e+01   5.0844885e+01   4.4431548e+01   3.9294983e+01   3.5993432e+01   2.7840688e+01   2.1181557e+01  -0.0000000e+00  -0.0000000e+00  -0.0000000e+00  -0.0000000e+00  -0.0000000e+00  -0.0000000e+00  -0.0000000e+00  -0.0000000e+00  -0.0000000e+00  -0.0000000e+00  -0.0000000e+00  -0.0000000e+00  -0.0000000e+00  -0.0000000e+00  -0.0000000e+00  -0.0000000e+00  -0.0000000e+00  -0.0000000e+00  -0.0000000e+00
-0.0000000e+00  -0.0000000e+00  -0.0000000e+00  -0.0000000e+00  -0.0000000e+00   1.1144087e+00   1.7882986e+01   3.8782092e+01   6.8515499e+01   1.2013956e+02   1.5640408e+02   1.7272805e+02   1.8785600e+02   1.9009596e+02   1.9179113e+02   1.9615565e+02   1.9378470e+02   1.8160477e+02   1.7705183e+02   1.7501167e+02   1.7384430e+02   1.7202629e+02   1.6674658e+02   1.5713554e+02   1.4372156e+02   1.3354938e+02   1.2119783e+02   1.1235034e+02   9.8406639e+01   8.4588036e+01   6.8960365e+01   6.0201539e+01   5.1403294e+01   4.6245149e+01   5.6908446e+01   5.5138051e+01   5.1502998e+01   4.9665216e+01   3.7360412e+01   3.2705167e+01   2.9514946e+01   2.1433471e+01  -0.0000000e+00  -0.0000000e+00  -0.0000000e+00  -0.0000000e+00  -0.0000000e+00  -0.0000000e+00  -0.0000000e+00  -0.0000000e+00  -0.0000000e+00  -0.0000000e+00  -0.0000000e+00   3.6073675e+00  -0.0000000e+00  -0.0000000e+00  -0.0000000e+00  -0.0000000e+00  -0.0000000e+00  -0.0000000e+00  -0.0000000e+00
-0.0000000e+00  -0.0000000e+00  -0.0000000e+00  -0.0000000e+00  -0.0000000e+00  -0.0000000e+00   1.3653257e+01   3.5624895e+01   6.1569020e+01   9.8903097e+01   1.5886455e+02   1.8794872e+02   1.9105881e+02   1.9969147e+02   2.0180632e+02   2.0211701e+02   1.9797012e+02   1.9292535e+02   1.8439245e+02   1.7838275e+02   1.7680899e+02   1.7486177e+02   1.6675672e+02   1.5798096e+02   1.4785849e+02   1.3611661e+02   1.2255992e+02   1.1109861e+02   9.9608023e+01   9.0070369e+01   7.3660327e+01   6.3370603e+01   4.9531960e+01   4.6684264e+01   5.0507409e+01   5.2419728e+01   5.1523836e+01   5.0502998e+01   4.2891434e+01   3.1995222e+01   2.6493739e+01   2.2071487e+01   1.7811962e+00  -0.0000000e+00  -0.0000000e+00  -0.0000000e+00  -0.0000000e+00  -0.0000000e+00  -0.0000000e+00  -0.0000000e+00  -0.0000000e+00  -0.0000000e+00  -0.0000000e+00   6.6831931e-01  -0.0000000e+00  -0.0000000e+00  -0.0000000e+00  -0.0000000e+00  -0.0000000e+00  -0.0000000e+00  -0.0000000e+00
-0.0000000e+00  -0.0000000e+00  -0.0000000e+00  -0.0000000e+00  -0.0000000e+00  -0.0000000e+00   1.0833571e+01   3.2907885e+01   5.4730229e+01   8.9604299e+01   1.4608526e+02   1.8476915e+02   1.9416122e+02   2.0126944e+02   2.0573708e+02   2.0276931e+02   2.0031312e+02   1.9132512e+02   1.8518888e+02   1.7939574e+02   1.7559381e+02   1.7314410e+02   1.5963356e+02   1.5140375e+02   1.4881687e+02   1.3640504e+02   1.2377058e+02   1.1428892e+02   1.0231984e+02   9.3404343e+01   7.6990048e+01   6.8282617e+01   5.6063450e+01   4.8251993e+01   4.3968348e+01   4.4236537e+01   4.4828420e+01   4.7489294e+01   4.5411490e+01   3.2647038e+01   2.6089416e+01   2.1610483e+01   9.1926933e+00  -0.0000000e+00  -0.0000000e+00  -0.0000000e+00  -0.0000000e+00  -0.0000000e+00  -0.0000000e+00  -0.0000000e+00  -0.0000000e+00  -0.0000000e+00  -0.0000000e+00  -0.0000000e+00   3.2905937e+00  -0.0000000e+00  -0.0000000e+00  -0.0000000e+00  -0.0000000e+00  -0.0000000e+00  -0.0000000e+00
-0.0000000e+00  -0.0000000e+00  -0.0000000e+00  -0.0000000e+00  -0.0000000e+00  -0.0000000e+00   1.1052912e+01   3.0889311e+01   5.7385256e+01   8.8026601e+01   1.3544982e+02   1.7896631e+02   1.9550636e+02   2.0318621e+02   2.0245761e+02   2.0212123e+02   2.0609728e+02   1.9417224e+02   1.9056807e+02   1.8025136e+02   1.7540374e+02   1.7160818e+02   1.6365537e+02   1.5475812e+02   1.4604386e+02   1.3671955e+02   1.2529043e+02   1.1440359e+02   1.0581210e+02   9.4600950e+01   8.0679695e+01   6.9173554e+01   6.0898691e+01   5.1870369e+01   4.0945062e+01   3.0932599e+01   4.0555370e+01   4.0665376e+01   4.2561118e+01   3.3457279e+01   2.5175892e+01   1.8000288e+01   9.8780014e+00  -0.0000000e+00  -0.0000000e+00  -0.0000000e+00  -0.0000000e+00  -0.0000000e+00  -0.0000000e+00  -0.0000000e+00  -0.0000000e+00  -0.0000000e+00  -0.0000000e+00  -0.0000000e+00   3.5025971e+00  -0.0000000e+00  -0.0000000e+00  -0.0000000e+00  -0.0000000e+00  -0.0000000e+00  -0.0000000e+00
-0.0000000e+00  -0.0000000e+00  -0.0000000e+00  -0.0000000e+00  -0.0000000e+00  -0.0000000e+00   9.0770333e+00   3.1551600e+01   5.7681888e+01   8.6418655e+01   1.2910371e+02   1.7589907e+02   1.9832783e+02   2.0621088e+02   2.0363469e+02   2.0582587e+02   2.0696631e+02   1.9966121e+02   1.9339612e+02   1.8382166e+02   1.7339864e+02   1.7064016e+02   1.6160052e+02   1.5529892e+02   1.4364964e+02   1.3686259e+02   1.2589391e+02   1.1199138e+02   1.0645658e+02   9.6012128e+01   8.3702662e+01   7.0459427e+01   6.2063885e+01   5.2873848e+01   4.4821155e+01   2.7624905e+01   3.3000640e+01   3.2788371e+01   3.6426298e+01   2.9350275e+01   1.9631043e+01   1.1069019e+01   5.6359979e+00   0.0000000e+00  -0.0000000e+00  -0.0000000e+00  -0.0000000e+00  -0.0000000e+00  -0.0000000e+00  -0.0000000e+00  -0.0000000e+00  -0.0000000e+00  -0.0000000e+00  -0.0000000e+00   4.5621476e+00  -0.0000000e+00  -0.0000000e+00  -0.0000000e+00  -0.0000000e+00  -0.0000000e+00  -0.0000000e+00
-0.0000000e+00  -0.0000000e+00  -0.0000000e+00  -0.0000000e+00  -0.0000000e+00  -0.0000000e+00   6.6490825e+00   3.3314793e+01   5.6348530e+01   8.0965757e+01   1.2516480e+02   1.7359737e+02   1.9498299e+02   2.1037234e+02   2.0944718e+02   2.0178057e+02   2.0118258e+02   2.0638849e+02   1.8999397e+02   1.7890661e+02   1.7640864e+02   1.7028532e+02   1.6103325e+02   1.5356010e+02   1.4703722e+02   1.3275150e+02   1.2427809e+02   1.1274234e+02   1.0355337e+02   9.7454039e+01   8.5954238e+01   7.1803793e+01   6.3280775e+01   5.3415652e+01   4.1723648e+01   2.9855482e+01   1.7146251e+01   3.2578388e+01   2.9347796e+01   2.5443153e+01   1.6492495e+01   5.8951825e+00   0.0000000e+00   0.0000000e+00  -0.0000000e+00  -0.0000000e+00  -0.0000000e+00  -0.0000000e+00  -0.0000000e+00  -0.0000000e+00  -0.0000000e+00   1.6024806e+00   2.5026819e+00   1.9195651e+00   4.6992638e+00  -0.0000000e+00  -0.0000000e+00  -0.0000000e+00  -0.0000000e+00  -0.0000000e+00  -0.0000000e+00
-0.0000000e+00  -0.0000000e+00  -0.0000000e+00  -0.0000000e+00  -0.0000000e+00  -0.0000000e+00   7.7856749e+00   3.3909037e+01   5.8118806e+01   7.8675843e+01   1.2160882e+02   1.6731770e+02   1.9261110e+02   2.0547806e+02   2.0659915e+02   2.0599182e+02   2.0178097e+02   2.0756173e+02   1.9430978e+02   1.8077752e+02   1.7653930e+02   1.6592487e+02   1.5881228e+02   1.5193107e+02   1.4325731e+02   1.3155324e+02   1.1909371e+02   1.0974898e+02   1.0195233e+02   1.0019361e+02   8.9253379e+01   7.4782001e+01   6.4168580e+01   5.5154876e+01   4.2545793e+01   2.9515362e+01   1.9629377e+01   6.9957510e+00   2.4454702e+01   2.0291984e+01  -0.0000000e+00   0.0000000e+00   0.0000000e+00   0.0000000e+00  -0.0000000e+00  -0.0000000e+00  -0.0000000e+00  -0.0000000e+00  -0.0000000e+00  -0.0000000e+00  -0.0000000e+00  -0.0000000e+00  -0.0000000e+00   3.5528856e+00   4.2204028e+00  -0.0000000e+00  -0.0000000e+00  -0.0000000e+00  -0.0000000e+00  -0.0000000e+00  -0.0000000e+00
-0.0000000e+00  -0.0000000e+00  -0.0000000e+00  -0.0000000e+00  -0.0000000e+00  -0.0000000e+00   8.5883387e+00   3.1812928e+01   5.7117339e+01   7.2735017e+01   1.1278841e+02   1.6455160e+02   1.9141950e+02   2.0389222e+02   2.1550507e+02   2.0375259e+02   2.0463033e+02   2.0449001e+02   1.9600737e+02   1.8075626e+02   1.7491639e+02   1.7023739e+02   1.5670834e+02   1.4726263e+02   1.4092365e+02   1.2773974e+02   1.1973011e+02   1.0977450e+02   1.0039801e+02   9.2845121e+01   8.9868819e+01   7.8056294e+01   6.6140669e+01   5.6315912e+01   4.5034764e+01   3.1361272e+01   1.9000235e+01   8.4603079e+00   1.6581100e+01   1.3138408e+01   1.1667767e+00  -0.0000000e+00  -0.0000000e+00   0.0000000e+00  -0.0000000e+00  -0.0000000e+00  -0.0000000e+00  -0.0000000e+00  -0.0000000e+00  -0.0000000e+00  -0.0000000e+00  -0.0000000e+00  -0.0000000e+00   6.2151707e-01   4.5027189e+00   3.7944968e+00  -0.0000000e+00  -0.0000000e+00  -0.0000000e+00  -0.0000000e+00  -0.0000000e+00
-0.0000000e+00  -0.0000000e+00  -0.0000000e+00  -0.0000000e+00  -0.0000000e+00  -0.0000000e+00   3.9616624e+00   2.6045251e+01   5.5417024e+01   7.2576537e+01   1.0919252e+02   1.5648223e+02   1.8805666e+02   2.0749484e+02   2.0727563e+02   2.0673573e+02   2.0211101e+02   2.0590781e+02   1.8936522e+02   1.8530383e+02   1.7338301e+02   1.6461828e+02   1.5449906e+02   1.4353065e+02   1.2479131e+02   1.3701995e+02   1.2193571e+02   1.1269102e+02   1.0276533e+02   9.3764848e+01   8.3581894e+01   7.3439023e+01   6.6550347e+01   5.8473840e+01   4.8668875e+01   3.3717144e+01   1.6561824e+01   8.0422858e+00  -0.0000000e+00   5.9012662e+00   6.5687728e-03  -0.0000000e+00  -0.0000000e+00  -0.0000000e+00  -0.0000000e+00  -0.0000000e+00  -0.0000000e+00  -0.0000000e+00  -0.0000000e+00  -0.0000000e+00  -0.0000000e+00  -0.0000000e+00  -0.0000000e+00  -0.0000000e+00   4.3810003e+00   3.5188354e+00  -0.0000000e+00  -0.0000000e+00  -0.0000000e+00  -0.0000000e+00  -0.0000000e+00
-0.0000000e+00  -0.0000000e+00  -0.0000000e+00  -0.0000000e+00  -0.0000000e+00  -0.0000000e+00   2.3543155e+00   2.7610980e+01   5.2650137e+01   7.3357366e+01   1.0422032e+02   1.5245657e+02   1.8851054e+02   2.0690596e+02   2.1380302e+02   2.0938959e+02   2.0119357e+02   2.0240704e+02   1.9442288e+02   1.8730252e+02   1.7112455e+02   1.6494357e+02   1.5374699e+02   1.3871726e+02   1.2406110e+02   1.0994712e+02   1.1768645e+02   1.1339721e+02   1.0503097e+02   9.9027267e+01   8.6768295e+01   7.4149829e+01   6.4466221e+01   5.5051463e+01   5.1815569e+01   3.6662437e+01   1.9590824e+01   8.5045544e+00  -0.0000000e+00  -0.0000000e+00  -0.0000000e+00  -0.0000000e+00  -0.0000000e+00  -0.0000000e+00  -0.0000000e+00  -0.0000000e+00  -0.0000000e+00  -0.0000000e+00  -0.0000000e+00  -0.0000000e+00  -0.0000000e+00  -0.0000000e+00  -0.0000000e+00  -0.0000000e+00   4.7150647e+00  -0.0000000e+00  -0.0000000e+00  -0.0000000e+00  -0.0000000e+00  -0.0000000e+00  -0.0000000e+00
-0.0000000e+00  -0.0000000e+00  -0.0000000e+00  -0.0000000e+00  -0.0000000e+00  -0.0000000e+00   5.4693600e-01   2.2975402e+01   5.1251919e+01   6.8599441e+01   9.8052552e+01   1.4745806e+02   1.8275989e+02   2.0642539e+02   2.0425968e+02   2.2436831e+02   2.0891293e+02   2.0707377e+02   1.9453771e+02   1.8748146e+02   1.7620204e+02   1.6412976e+02   1.5817635e+02   1.4458877e+02   1.3195672e+02   1.1746984e+02   1.0320448e+02   9.0863538e+01   1.0576514e+02   9.3834610e+01   8.0125276e+01   6.1511868e+01   6.3486147e+01   5.7689278e+01   4.2613038e+01   3.1612987e+01   2.4214441e+01   1.0353518e+01   3.7220455e+00  -0.0000000e+00  -0.0000000e+00  -0.0000000e+00  -0.0000000e+00  -0.0000000e+00  -0.0000000e+00  -0.0000000e+00  -0.0000000e+00  -0.0000000e+00  -0.0000000e+00  -0.0000000e+00  -0.0000000e+00  -0.0000000e+00  -0.0000000e+00  -0.0000000e+00   3.5616906e+00  -0.0000000e+00  -0.0000000e+00  -0.0000000e+00  -0.0000000e+00  -0.0000000e+00  -0.0000000e+00
-0.0000000e+00  -0.0000000e+00  -0.0000000e+00  -0.0000000e+00  -0.0000000e+00  -0.0000000e+00  -0.0000000e+00   2.2396388e+01   5.0283092e+01   6.9126041e+01   8.8412026e+01   1.3171990e+02   1.8339419e+02   2.0100353e+02   2.0936708e+02   2.1480831e+02   2.1627084e+02   2.0929042e+02   2.1067671e+02   1.8993000e+02   1.8433148e+02   1.6486741e+02   1.6098987e+02   1.5716524e+02   1.3606122e+02   1.2435573e+02   1.1265199e+02   1.0061636e+02   8.5580254e+01   8.6564968e+01   8.1806557e+01   6.7721818e+01   5.7093356e+01   4.9503384e+01   4.9899128e+01   3.4163353e+01   1.6319905e+01  -0.0000000e+00  -0.0000000e+00  -0.0000000e+00  -0.0000000e+00  -0.0000000e+00  -0.0000000e+00  -0.0000000e+00  -0.0000000e+00  -0.0000000e+00  -0.0000000e+00  -0.0000000e+00  -0.0000000e+00  -0.0000000e+00  -0.0000000e+00  -0.0000000e+00  -0.0000000e+00  -0.0000000e+00  -0.0000000e+00  -0.0000000e+00  -0.0000000e+00  -0.0000000e+00  -0.0000000e+00  -0.0000000e+00  -0.0000000e+00
-0.0000000e+00  -0.0000000e+00  -0.0000000e+00  -0.0000000e+00  -0.0000000e+00  -0.0000000e+00  -0.0000000e+00   2.2197486e+01   4.9632217e+01   7.0245094e+01   9.2418100e+01   1.2542285e+02   1.7984636e+02   2.0300968e+02   2.0511552e+02   2.1933207e+02   2.1737579e+02   2.1602561e+02   2.0886727e+02   1.9992607e+02   1.8991697e+02   1.7305287e+02   1.6430394e+02   1.5980068e+02   1.4228442e+02   1.3089457e+02   1.1626450e+02   1.0270830e+02   9.5029093e+01   9.1775100e+01   8.2349640e+01   7.6864779e+01   6.4165661e+01   5.4459198e+01   4.3504838e+01   3.4689199e+01   1.8828316e+01   1.9083384e+00  -0.0000000e+00  -0.0000000e+00  -0.0000000e+00  -0.0000000e+00  -0.0000000e+00  -0.0000000e+00  -0.0000000e+00  -0.0000000e+00  -0.0000000e+00   4.3599630e+00  -0.0000000e+00  -0.0000000e+00  -0.0000000e+00  -0.0000000e+00  -0.0000000e+00  -0.0000000e+00  -0.0000000e+00   2.7689314e-01  -0.0000000e+00  -0.0000000e+00  -0.0000000e+00  -0.0000000e+00  -0.0000000e+00
-0.0000000e+00  -0.0000000e+00  -0.0000000e+00  -0.0000000e+00  -0.0000000e+00  -0.0000000e+00  -0.0000000e+00   2.2074521e+01   4.5790813e+01   7.1570733e+01   9.4496822e+01   1.2322114e+02   1.7274942e+02   1.8931618e+02   2.0942661e+02   2.2892055e+02   2.2424629e+02   2.1247272e+02   2.1206368e+02   2.0723172e+02   2.0098520e+02   1.8312355e+02   1.6763719e+02   1.6135619e+02   1.5496048e+02   1.3703304e+02   1.2252150e+02   1.0835475e+02   9.9737033e+01   9.1457772e+01   8.3646601e+01   8.0121963e+01   7.0938349e+01   6.1326455e+01   4.9389395e+01   3.6002302e+01   2.2486272e+01   8.6789565e+00   4.2403604e-01  -0.0000000e+00  -0.0000000e+00  -0.0000000e+00  -0.0000000e+00  -0.0000000e+00  -0.0000000e+00  -0.0000000e+00  -0.0000000e+00  -0.0000000e+00  -0.0000000e+00   1.0104118e+01  -0.0000000e+00  -0.0000000e+00  -0.0000000e+00  -0.0000000e+00  -0.0000000e+00   4.4551890e+00  -0.0000000e+00  -0.0000000e+00  -0.0000000e+00  -0.0000000e+00  -0.0000000e+00
-0.0000000e+00  -0.0000000e+00  -0.0000000e+00  -0.0000000e+00  -0.0000000e+00  -0.0000000e+00  -0.0000000e+00   2.1817697e+01   4.4785416e+01   7.0982946e+01   9.4700939e+01   1.2528834e+02   1.6492050e+02   1.8179386e+02   2.0984445e+02   2.0550449e+02   2.1578083e+02   2.1606993e+02   2.2830786e+02   2.0964514e+02   1.9944247e+02   1.8754384e+02   1.7082910e+02   1.6409486e+02   1.5787920e+02   1.4326659e+02   1.1950416e+02   1.1162470e+02   1.0095576e+02   9.5618796e+01   8.6222360e+01   8.0526849e+01   7.3941548e+01   6.9748227e+01   5.6392758e+01   4.1380757e+01   2.6266873e+01   1.4422285e+01   2.3544756e+00  -0.0000000e+00  -0.0000000e+00  -0.0000000e+00  -0.0000000e+00  -0.0000000e+00  -0.0000000e+00  -0.0000000e+00  -0.0000000e+00  -0.0000000e+00  -0.0000000e+00   1.2010540e+01  -0.0000000e+00   7.1969257e+00   6.2903470e+00  -0.0000000e+00  -0.0000000e+00  -0.0000000e+00  -0.0000000e+00  -0.0000000e+00  -0.0000000e+00  -0.0000000e+00  -0.0000000e+00
-0.0000000e+00  -0.0000000e+00  -0.0000000e+00  -0.0000000e+00  -0.0000000e+00  -0.0000000e+00   5.9861742e+00   2.4392430e+01   4.7161739e+01   7.2190102e+01   9.0968301e+01   1.2396845e+02   1.5550705e+02   1.7371876e+02   1.8304840e+02   2.0873671e+02   2.2745747e+02   2.2220260e+02   2.2162701e+02   2.0837730e+02   1.8807964e+02   1.9137972e+02   1.7402472e+02   1.5357836e+02   1.5552112e+02   1.4845843e+02   1.3100843e+02   1.1829409e+02   1.0420964e+02   9.7133880e+01   8.9750383e+01   8.1892785e+01   7.4654151e+01   6.6846344e+01   6.0395396e+01   5.0326577e+01   3.6613406e+01   2.1974383e+01   1.1677207e+01   4.4896690e+00  -0.0000000e+00  -0.0000000e+00  -0.0000000e+00  -0.0000000e+00  -0.0000000e+00  -0.0000000e+00  -0.0000000e+00  -0.0000000e+00   8.0544600e+00   4.0801941e+00  -0.0000000e+00  -0.0000000e+00  -0.0000000e+00  -0.0000000e+00  -0.0000000e+00   6.6322805e+00   5.6215700e+00  -0.0000000e+00  -0.0000000e+00  -0.0000000e+00  -0.0000000e+00
-0.0000000e+00  -0.0000000e+00  -0.0000000e+00  -0.0000000e+00  -0.0000000e+00  -0.0000000e+00   9.1616421e+00   2.6677859e+01   4.8233427e+01   6.9411372e+01   8.0424519e+01   1.1351798e+02   1.5191298e+02   1.7897195e+02   1.7665623e+02   2.1239175e+02   2.3013385e+02   2.1355060e+02   2.1367890e+02   2.0677267e+02   2.0027700e+02   1.9245870e+02   1.8111457e+02   1.7027064e+02   1.5946482e+02   1.5149320e+02   1.3906848e+02   1.2555216e+02   1.1016405e+02   9.8476734e+01   8.9739827e+01   8.2784612e+01   7.6224551e+01   7.0746614e+01   6.0187678e+01   5.4640620e+01   4.5017628e+01   2.5799080e+01   1.3113167e+01   3.4263944e+00  -0.0000000e+00  -0.0000000e+00   4.6641784e+00   1.2367039e+01  -0.0000000e+00   5.5788799e-01  -0.0000000e+00  -0.0000000e+00   1.7145671e+01  -0.0000000e+00  -0.0000000e+00  -0.0000000e+00   4.5283498e+00  -0.0000000e+00  -0.0000000e+00  -0.0000000e+00  -0.0000000e+00  -0.0000000e+00  -0.0000000e+00  -0.0000000e+00  -0.0000000e+00
-0.0000000e+00  -0.0000000e+00  -0.0000000e+00  -0.0000000e+00  -0.0000000e+00  -0.0000000e+00   6.9737218e+00   2.5877162e+01   4.3835452e+01   6.6214956e+01   7.4614449e+01   9.9032062e+01   1.4546824e+02   1.7330515e+02   1.8054333e+02   1.8495318e+02   2.2250794e+02   2.2124008e+02   2.1439840e+02   2.1029316e+02   1.9588908e+02   1.9461591e+02   1.8431514e+02   1.7906448e+02   1.6683707e+02   1.5684126e+02   1.4102572e+02   1.2687201e+02   1.1479848e+02   1.0358903e+02   9.4723264e+01   8.5850356e+01   7.6935731e+01   7.1283576e+01   6.4230178e+01   5.0558827e+01   4.7755536e+01   3.2452388e+01   2.0336858e+01   8.6990672e+00  -0.0000000e+00  -0.0000000e+00  -0.0000000e+00   1.3443090e+01   4.0977366e+00  -0.0000000e+00  -0.0000000e+00  -0.0000000e+00  -0.0000000e+00   2.8879371e+00  -0.0000000e+00  -0.0000000e+00  -0.0000000e+00  -0.0000000e+00  -0.0000000e+00  -0.0000000e+00  -0.0000000e+00  -0.0000000e+00  -0.0000000e+00  -0.0000000e+00  -0.0000000e+00
-0.0000000e+00  -0.0000000e+00  -0.0000000e+00  -0.0000000e+00  -0.0000000e+00   0.0000000e+00   8.0044542e+00   2.4423986e+01   4.2291122e+01   5.9958864e+01   7.2345363e+01   9.8352744e+01   1.2822901e+02   1.6794986e+02   1.8602792e+02   1.8344346e+02   2.1413618e+02   2.1327362e+02   2.3394090e+02   2.0125090e+02   2.0604167e+02   1.8990350e+02   1.8789591e+02   1.7799768e+02   1.7152566e+02   1.5723746e+02   1.4521587e+02   1.3193205e+02   1.2176675e+02   1.0434169e+02   9.5198763e+01   8.9012200e+01   7.9816351e+01   7.2505528e+01   6.7355700e+01   5.7675198e+01   5.2235569e+01   4.0394765e+01   2.5633734e+01   1.6140126e+01   2.4962319e+00  -0.0000000e+00  -0.0000000e+00   1.2114343e+01   1.6803318e+01  -0.0000000e+00   2.6231862e+00  -0.0000000e+00  -0.0000000e+00   2.9218350e+01  -0.0000000e+00  -0.0000000e+00  -0.0000000e+00  -0.0000000e+00   3.3134494e+00  -0.0000000e+00  -0.0000000e+00  -0.0000000e+00  -0.0000000e+00  -0.0000000e+00  -0.0000000e+00
-0.0000000e+00  -0.0000000e+00  -0.0000000e+00  -0.0000000e+00   0.0000000e+00   0.0000000e+00   6.6082980e+00   2.0885695e+01   3.8666181e+01   5.5568963e+01   6.8454223e+01   8.8359928e+01   1.1866659e+02   1.6329982e+02   1.8424205e+02   1.9630978e+02   2.1127336e+02   2.1208857e+02   2.2113035e+02   2.1236438e+02   2.1338440e+02   2.0063205e+02   1.8734265e+02   1.8752134e+02   1.7334265e+02   1.5831113e+02   1.4529058e+02   1.3997318e+02   1.2189369e+02   1.0991611e+02   9.9846438e+01   9.0504146e+01   8.2198162e+01   7.4160892e+01   6.8769064e+01   6.0905140e+01   5.5016853e+01   4.4455705e+01   2.8942235e+01   1.7523111e+01   6.6011010e+00  -0.0000000e+00  -0.0000000e+00   1.7727598e+01   1.9755201e+01   1.4652183e+01   6.3205560e+00  -0.0000000e+00  -0.0000000e+00   2.3137442e+00   6.1290455e+00  -0.0000000e+00  -0.0000000e+00  -0.0000000e+00  -0.0000000e+00   7.8164189e-01  -0.0000000e+00  -0.0000000e+00  -0.0000000e+00  -0.0000000e+00  -0.0000000e+00
-0.0000000e+00  -0.0000000e+00  -0.0000000e+00   0.0000000e+00   0.0000000e+00   0.0000000e+00   4.7092900e+00   1.6934110e+01   3.0457755e+01   4.8718255e+01   6.3765341e+01   7.3207693e+01   1.0645414e+02   1.4001221e+02   1.8229697e+02   1.9689776e+02   2.0138459e+02   2.1150028e+02   2.2981820e+02   2.3170315e+02   2.1787670e+02   2.0592478e+02   1.8315665e+02   1.8062689e+02   1.7943236e+02   1.6396096e+02   1.5322702e+02   1.4224638e+02   1.3048613e+02   1.1391651e+02   1.0218078e+02   9.0512794e+01   8.2970341e+01   7.6277238e+01   7.1707104e+01   6.1778417e+01   5.0435748e+01   4.9246294e+01   3.6344800e+01   2.0051990e+01   7.7130484e+00   2.2885230e+00  -0.0000000e+00   2.0496761e+01   2.1634030e+01   2.4501172e+01   1.1923213e+01   8.3142137e+00  -0.0000000e+00  -0.0000000e+00   4.5565138e+01   2.2255896e+01  -0.0000000e+00  -0.0000000e+00  -0.0000000e+00   8.0277408e-01  -0.0000000e+00  -0.0000000e+00  -0.0000000e+00  -0.0000000e+00  -0.0000000e+00
-0.0000000e+00  -0.0000000e+00  -0.0000000e+00  -0.0000000e+00  -0.0000000e+00  -0.0000000e+00  -0.0000000e+00   8.6291687e+00   2.2697064e+01   4.1610788e+01   5.9516649e+01   7.3989217e+01   9.8961602e+01   1.2540223e+02   1.7175656e+02   1.9299956e+02   1.9970687e+02   2.0776126e+02   2.1770178e+02   2.1415811e+02   2.0490966e+02   2.0997141e+02   2.0009408e+02   1.8244428e+02   1.8034516e+02   1.6653310e+02   1.5641629e+02   1.4355371e+02   1.3225772e+02   1.1699036e+02   1.0573269e+02   9.2031230e+01   8.1688779e+01   7.2873235e+01   7.1489794e+01   6.5237837e+01   5.6355844e+01   4.7275260e+01   3.9032517e+01   2.7368992e+01   1.5630357e+01   1.6591274e+00  -0.0000000e+00   2.6267768e+01   2.4951630e+01   2.7174271e+01   2.9196973e+01   2.7597341e+01  -0.0000000e+00  -0.0000000e+00  -0.0000000e+00   4.5441712e+01   1.5598681e+01  -0.0000000e+00  -0.0000000e+00   6.0309905e-01  -0.0000000e+00  -0.0000000e+00  -0.0000000e+00  -0.0000000e+00  -0.0000000e+00
-0.0000000e+00  -0.0000000e+00  -0.0000000e+00  -0.0000000e+00  -0.0000000e+00  -0.0000000e+00  -0.0000000e+00   4.8660973e+00   2.0823193e+01   3.6542283e+01   4.9694582e+01   7.2448252e+01   8.3277879e+01   1.1648743e+02   1.6148870e+02   1.9045613e+02   1.9380640e+02   1.9901949e+02   2.1320145e+02   2.1851753e+02   2.2416156e+02   2.1635152e+02   2.0403381e+02   1.8181046e+02   1.7750317e+02   1.6965707e+02   1.5667001e+02   1.4341306e+02   1.3339474e+02   1.2237505e+02   1.1143976e+02   9.5794425e+01   8.4421805e+01   7.4567025e+01   6.8349450e+01   6.3333259e+01   6.0472909e+01   5.0880852e+01   4.0036969e+01   2.5688601e+01   1.8253096e+01   9.2963372e+00  -0.0000000e+00   1.8783950e+01   2.8749736e+01   3.0555601e+01   3.0572224e+01   2.9511515e+01   2.8698232e+01   1.5124520e+01  -0.0000000e+00  -0.0000000e+00   4.2464764e+01  -0.0000000e+00  -0.0000000e+00  -0.0000000e+00  -0.0000000e+00  -0.0000000e+00  -0.0000000e+00  -0.0000000e+00  -0.0000000e+00
-0.0000000e+00  -0.0000000e+00  -0.0000000e+00  -0.0000000e+00  -0.0000000e+00  -0.0000000e+00  -0.0000000e+00   3.1337934e+00   1.3821925e+01   2.9509969e+01   4.1958410e+01   6.0182611e+01   7.5757801e+01   9.9247655e+01   1.3660129e+02   1.7941717e+02   1.9109533e+02   1.9581530e+02   1.9582350e+02   2.1300860e+02   2.1256325e+02   2.1519895e+02   2.0723207e+02   1.8560906e+02   1.7947719e+02   1.7457078e+02   1.5988452e+02   1.4744436e+02   1.3508267e+02   1.2274141e+02   1.1355754e+02   1.0042948e+02   8.4898248e+01   7.6184529e+01   6.8472233e+01   6.3153723e+01   5.9337730e+01   4.7428821e+01   4.5198843e+01   3.1995127e+01   1.7013810e+01   6.2699234e+00   4.1015603e+00   5.8068025e+00   3.0534024e+01   3.0699386e+01   3.0422666e+01   2.9873824e+01   2.8600289e+01   2.5063227e+01   4.2442708e+00  -0.0000000e+00  -0.0000000e+00   4.5354626e+01  -0.0000000e+00  -0.0000000e+00  -0.0000000e+00  -0.0000000e+00  -0.0000000e+00  -0.0000000e+00  -0.0000000e+00
-0.0000000e+00  -0.0000000e+00  -0.0000000e+00  -0.0000000e+00  -0.0000000e+00  -0.0000000e+00  -0.0000000e+00   0.0000000e+00   7.4285080e+00   1.8519343e+01   3.5951850e+01   4.5919389e+01   7.1583013e+01   9.0884368e+01   1.1822098e+02   1.7128972e+02   1.8416261e+02   1.9440857e+02   1.9960624e+02   2.0883389e+02   2.1292713e+02   2.2028246e+02   2.0480310e+02   1.8540713e+02   1.8135959e+02   1.7664328e+02   1.6141886e+02   1.4967741e+02   1.3706980e+02   1.2593747e+02   1.1168927e+02   1.0347683e+02   9.2000330e+01   7.6373872e+01   6.8312013e+01   6.1955591e+01   5.8798083e+01   5.2702055e+01   4.1507402e+01   3.2386378e+01   2.5901947e+01   1.7471082e+01   4.1134653e+00   1.3258670e+01   1.7120655e+01   3.1110632e+01   3.0153496e+01   2.9303180e+01   2.8439809e+01   2.7240390e+01   2.2248495e+01   1.6052661e+01   1.2504151e+01   2.5252210e+01   4.5806741e+01  -0.0000000e+00  -0.0000000e+00  -0.0000000e+00  -0.0000000e+00  -0.0000000e+00  -0.0000000e+00
-0.0000000e+00  -0.0000000e+00  -0.0000000e+00  -0.0000000e+00  -0.0000000e+00  -0.0000000e+00  -0.0000000e+00  -0.0000000e+00   5.6529195e+00   1.3154710e+01   2.7723733e+01   4.1748568e+01   6.1490450e+01   7.8828018e+01   1.0230310e+02   1.5153464e+02   1.8052472e+02   1.8826367e+02   1.9625000e+02   2.0377684e+02   2.0876609e+02   2.1262555e+02   2.0781148e+02   1.9355083e+02   1.8397317e+02   1.6362820e+02   1.6441754e+02   1.4676848e+02   1.3870947e+02   1.2497817e+02   1.1616166e+02   1.0308221e+02   9.3707088e+01   8.0011715e+01   6.8394039e+01   6.2104020e+01   5.7867745e+01   5.2961680e+01   4.4314247e+01   3.4763199e+01   2.2833906e+01   1.0158409e+01   1.4480777e+01  -0.0000000e+00   2.0326505e+01   2.9000003e+01   3.0208131e+01   2.9055057e+01   2.8503732e+01   2.6406387e+01   2.5787423e+01   2.0070163e+01   5.8901519e+00  -0.0000000e+00   1.8751637e+01   1.3058244e+01  -0.0000000e+00  -0.0000000e+00  -0.0000000e+00  -0.0000000e+00  -0.0000000e+00
-0.0000000e+00  -0.0000000e+00  -0.0000000e+00  -0.0000000e+00  -0.0000000e+00  -0.0000000e+00  -0.0000000e+00  -0.0000000e+00   5.0262377e+00   1.0069685e+01   1.9999499e+01   3.6176721e+01   5.1274263e+01   7.1873864e+01   9.2684510e+01   1.2904106e+02   1.6804946e+02   1.8452674e+02   1.9052062e+02   2.0008599e+02   2.0926969e+02   2.1741647e+02   2.0188330e+02   1.9167095e+02   1.8206853e+02   1.7511094e+02   1.6016318e+02   1.4480314e+02   1.3318052e+02   1.2222798e+02   1.1522638e+02   1.0387224e+02   9.2443164e+01   8.0683021e+01   7.1283369e+01   6.1581373e+01   5.7346766e+01   5.2856039e+01   4.7397621e+01   3.5020334e+01   2.5389331e+01   1.4296871e+01   8.0946614e+00   2.0260290e+01   2.8329541e+01   2.2685110e+01   3.1542224e+01   2.9469663e+01   2.8508272e+01   2.9691199e+01   1.3014125e+01   7.3691218e+00  -0.0000000e+00  -0.0000000e+00  -0.0000000e+00   5.1995972e+01   4.8851382e-01  -0.0000000e+00  -0.0000000e+00  -0.0000000e+00  -0.0000000e+00
-0.0000000e+00  -0.0000000e+00  -0.0000000e+00  -0.0000000e+00  -0.0000000e+00  -0.0000000e+00  -0.0000000e+00  -0.0000000e+00  -0.0000000e+00   7.9265766e+00   1.4326877e+01   2.5738941e+01   4.3891217e+01   6.9478492e+01   8.2721194e+01   1.0519840e+02   1.5251862e+02   1.8093063e+02   1.9526366e+02   1.9254199e+02   2.0474173e+02   2.0173107e+02   2.1623473e+02   2.0121171e+02   1.8221991e+02   1.7073712e+02   1.5774761e+02   1.4525250e+02   1.3129167e+02   1.1994369e+02   1.1261495e+02   1.0327423e+02   9.1901118e+01   8.0435435e+01   7.2526797e+01   6.4619515e+01   5.6357052e+01   5.3179464e+01   4.7914539e+01   4.0054346e+01   2.5055283e+01   1.8225116e+01   9.1801549e+00   2.6733843e+01   3.1152747e+01   3.0809979e+01   3.0568271e+01   3.0952892e+01   1.9720008e+01   2.2618315e+01   2.9944201e+01   6.6104116e+00  -0.0000000e+00  -0.0000000e+00  -0.0000000e+00   1.4635342e+01   3.8903534e+01  -0.0000000e+00  -0.0000000e+00  -0.0000000e+00  -0.0000000e+00
-0.0000000e+00  -0.0000000e+00  -0.0000000e+00  -0.0000000e+00  -0.0000000e+00  -0.0000000e+00  -0.0000000e+00  -0.0000000e+00  -0.0000000e+00  -0.0000000e+00   7.3799130e+00   1.7576961e+01   4.0143773e+01   5.8830718e+01   7.1193094e+01   1.0121873e+02   1.3191171e+02   1.6402148e+02   1.7809944e+02   1.8325648e+02   1.9524541e+02   2.0135443e+02   2.0149281e+02   1.9556731e+02   1.8503542e+02   1.6693572e+02   1.5452830e+02   1.4093023e+02   1.3617275e+02   1.1976218e+02   1.0976583e+02   1.0186828e+02   8.7004503e+01   7.7476529e+01   6.9041063e+01   6.5858563e+01   5.8859435e+01   4.9521053e+01   4.2906343e+01   4.1124079e+01   3.2415852e+01   1.6750219e+01   2.9764772e+01   3.2725723e+01   3.2503986e+01   3.6871417e+01   2.3374926e+01   2.9504982e+01   2.7714423e+01   1.8947616e+01   1.7452757e+01   1.2683041e+01   2.4620254e+00  -0.0000000e+00  -0.0000000e+00  -0.0000000e+00   1.9914285e+01   5.4886452e+00  -0.0000000e+00  -0.0000000e+00  -0.0000000e+00
-0.0000000e+00  -0.0000000e+00  -0.0000000e+00  -0.0000000e+00  -0.0000000e+00  -0.0000000e+00  -0.0000000e+00  -0.0000000e+00   0.0000000e+00  -0.0000000e+00   6.9399893e+00   1.3263563e+01   3.0262226e+01   4.5534813e+01   6.5589191e+01   8.4944788e+01   1.2608291e+02   1.6069674e+02   1.7289362e+02   1.8107295e+02   1.9198911e+02   2.1181079e+02   2.1309064e+02   2.0326363e+02   1.8980090e+02   1.7191935e+02   1.5840721e+02   1.4637632e+02   1.3436874e+02   1.2650824e+02   1.0940810e+02   9.7452601e+01   8.3294157e+01   7.5266985e+01   6.6236218e+01   6.1808481e+01   5.9508418e+01   5.1637559e+01   4.4395942e+01   3.2742942e+01   2.2432777e+01   3.0640836e+01   3.3105510e+01   3.4702900e+01   3.4893176e+01   3.5932209e+01   3.6704932e+01   2.9286305e+01   2.8022125e+01   2.2512058e+01   1.5258705e+01   1.9469401e+01  -0.0000000e+00  -0.0000000e+00  -0.0000000e+00  -0.0000000e+00   1.8365473e+01   2.9332960e+01  -0.0000000e+00  -0.0000000e+00  -0.0000000e+00
-0.0000000e+00  -0.0000000e+00  -0.0000000e+00  -0.0000000e+00  -0.0000000e+00  -0.0000000e+00  -0.0000000e+00  -0.0000000e+00  -0.0000000e+00  -0.0000000e+00   4.1961902e+00   7.3526436e+00   2.0174091e+01   3.6370540e+01   5.2586537e+01   6.2001897e+01   9.3626751e+01   1.3253782e+02   1.6006492e+02   1.6908160e+02   1.8207060e+02   2.0136048e+02   2.0723438e+02   2.0057115e+02   1.9549816e+02   1.8378150e+02   1.6446929e+02   1.4967141e+02   1.3261891e+02   1.1942102e+02   1.0750320e+02   9.4098421e+01   8.3593418e+01   7.4562301e+01   6.6638313e+01   6.0405586e+01   5.6043897e+01   5.2178649e+01   4.6866401e+01   3.5905762e+01   2.1753716e+01   1.1552638e+01   3.4863380e+01   3.5129882e+01   3.4502169e+01   3.5299788e+01   3.5554089e+01   3.1802276e+01   2.5937208e+01   2.2894372e+01   1.4388992e+01   1.1556200e+01   2.3458322e+01   1.1733205e+01  -0.0000000e+00  -0.0000000e+00   6.9939869e+00   1.5993751e+01  -0.0000000e+00  -0.0000000e+00  -0.0000000e+00
-0.0000000e+00  -0.0000000e+00  -0.0000000e+00  -0.0000000e+00  -0.0000000e+00  -0.0000000e+00  -0.0000000e+00  -0.0000000e+00  -0.0000000e+00  -0.0000000e+00  -0.0000000e+00  -0.0000000e+00   9.6034490e+00   1.4375094e+01   3.1936228e+01   4.7726888e+01   6.7256308e+01   1.1792409e+02   1.4619567e+02   1.6275212e+02   1.7260179e+02   1.9344382e+02   2.0365902e+02   1.9373603e+02   1.8710083e+02   1.8347226e+02   1.6337942e+02   1.4552918e+02   1.2686510e+02   1.1841763e+02   1.1194435e+02   9.3321755e+01   8.4277155e+01   7.4025579e+01   6.4299161e+01   5.8781372e+01   5.3553631e+01   5.0426022e+01   4.5446599e+01   3.4642507e+01   1.9721781e+01   1.1653892e+01   1.2862095e+01   3.2949582e+01   3.3503101e+01   3.4452724e+01   3.6311055e+01   3.6754686e+01   3.2971570e+01   2.6347645e+01   2.1489568e+01   1.4583754e+01   2.0173204e+01   2.2062453e+01   1.9709103e+01  -0.0000000e+00  -0.0000000e+00   4.7235580e+00   1.5343824e+01  -0.0000000e+00  -0.0000000e+00
-0.0000000e+00  -0.0000000e+00  -0.0000000e+00  -0.0000000e+00  -0.0000000e+00  -0.0000000e+00  -0.0000000e+00  -0.0000000e+00  -0.0000000e+00  -0.0000000e+00  -0.0000000e+00  -0.0000000e+00  -0.0000000e+00   2.3741886e+00   1.6831667e+01   3.5439700e+01   4.9486087e+01   8.0876734e+01   1.3340278e+02   1.4459424e+02   1.6514918e+02   1.8274155e+02   1.9345391e+02   1.9197869e+02   1.8626464e+02   1.7854043e+02   1.6128306e+02   1.4137504e+02   1.2640994e+02   1.1960146e+02   1.0486494e+02   9.2742520e+01   8.3059667e+01   7.1862373e+01   6.3210553e+01   5.6321730e+01   5.2224527e+01   4.8966670e+01   4.1528477e+01   4.0466032e+01   2.2294449e+01   9.8517999e+00  -0.0000000e+00   3.1390489e+01   3.2203605e+01   3.3436532e+01   3.7445974e+01   3.8473069e+01   3.9832995e+01   3.4551025e+01   2.1377966e+01   2.0620733e+01   1.8985896e+01   2.2503601e+01   2.0666169e+01   1.7373055e+01  -0.0000000e+00   1.3466074e+00   1.5139243e+01  -0.0000000e+00  -0.0000000e+00
-0.0000000e+00  -0.0000000e+00  -0.0000000e+00  -0.0000000e+00  -0.0000000e+00  -0.0000000e+00  -0.0000000e+00  -0.0000000e+00  -0.0000000e+00  -0.0000000e+00  -0.0000000e+00  -0.0000000e+00  -0.0000000e+00  -0.0000000e+00   7.9830655e+00   1.9218986e+01   3.5936754e+01   6.0747485e+01   1.0549371e+02   1.2939946e+02   1.4830459e+02   1.7850070e+02   1.8947587e+02   1.7889446e+02   1.7833056e+02   1.7330291e+02   1.6605965e+02   1.4092288e+02   1.2074924e+02   1.1321619e+02   1.0077102e+02   9.1482870e+01   8.2574503e+01   7.1059261e+01   6.0301175e+01   5.5323682e+01   5.0424263e+01   4.6972888e+01   3.7015865e+01   3.4839405e+01   3.0437828e+01   6.3680881e+00   1.3401760e+01   2.9554924e+01   3.1145811e+01   2.8902368e+01   1.8369952e+01   3.3398678e+01   3.2762989e+01   3.8710099e+01   3.7217200e+01   3.1325125e+01   2.7327894e+01   2.4978645e+01   1.9580661e+01   1.5563891e+01   1.4620123e+01   5.2443104e+00  -0.0000000e+00  -0.0000000e+00  -0.0000000e+00
-0.0000000e+00  -0.0000000e+00  -0.0000000e+00  -0.0000000e+00  -0.0000000e+00  -0.0000000e+00  -0.0000000e+00  -0.0000000e+00  -0.0000000e+00  -0.0000000e+00  -0.0000000e+00  -0.0000000e+00  -0.0000000e+00  -0.0000000e+00  -0.0000000e+00   5.4281177e+00   2.0566838e+01   4.4190760e+01   7.8041580e+01   1.1668837e+02   1.2848542e+02   1.6414404e+02   1.7928239e+02   1.7315856e+02   1.6489230e+02   1.6816819e+02   1.5925701e+02   1.4076915e+02   1.2660644e+02   1.1328095e+02   9.9288842e+01   8.8270435e+01   7.9994479e+01   6.9386883e+01   5.8856001e+01   5.3208546e+01   4.9645788e+01   4.5077240e+01   3.6186248e+01   2.7509265e+01   4.1826532e+01   2.8777271e+01   1.5978582e+01   2.7941953e+01   3.0561731e+01   2.7525512e+01   1.9056697e+01   3.3639048e+01   3.0982299e+01   2.1918824e+01   3.2809784e+01   3.0310078e+01   2.9452138e+01   2.6998436e+01   2.1250540e+01   1.1224097e+01   1.1730148e+00   1.7095752e+01  -0.0000000e+00  -0.0000000e+00  -0.0000000e+00
-0.0000000e+00  -0.0000000e+00  -0.0000000e+00  -0.0000000e+00  -0.0000000e+00  -0.0000000e+00  -0.0000000e+00  -0.0000000e+00  -0.0000000e+00  -0.0000000e+00  -0.0000000e+00  -0.0000000e+00  -0.0000000e+00  -0.0000000e+00  -0.0000000e+00  -0.0000000e+00   9.6042146e+00   2.2835513e+01   5.2794489e+01   9.4034966e+01   1.1490299e+02   1.3619885e+02   1.6334772e+02   1.6342576e+02   1.6345416e+02   1.5506661e+02   1.5136401e+02   1.4129731e+02   1.2769321e+02   1.0967039e+02   9.9959874e+01   9.8401367e+01   7.4174305e+01   6.4674342e+01   5.6400246e+01   5.1166613e+01   4.7233336e+01   4.3319941e+01   2.7319814e+01   2.5809641e+01   5.5832094e+01   4.1988408e+01   3.1787721e+01   2.4863591e+01   2.6149868e+01   1.4370233e+01   2.7504388e+01   1.2506958e+01   2.9367037e+01   1.7140542e+01   1.4714165e+01   2.2722222e+01   2.5862881e+01   2.5323638e+01   1.4936090e+01   5.3027796e+00   8.6387685e+00   1.1601713e+01   0.0000000e+00  -0.0000000e+00  -0.0000000e+00
-0.0000000e+00  -0.0000000e+00  -0.0000000e+00  -0.0000000e+00  -0.0000000e+00  -0.0000000e+00  -0.0000000e+00  -0.0000000e+00  -0.0000000e+00  -0.0000000e+00  -0.0000000e+00  -0.0000000e+00  -0.0000000e+00  -0.0000000e+00  -0.0000000e+00  -0.0000000e+00   2.9523308e+00   1.7419125e+01   3.5959634e+01   5.9861237e+01   9.7005439e+01   1.1813423e+02   1.4004304e+02   1.5307660e+02   1.5627689e+02   1.5778210e+02   1.4227650e+02   1.3438589e+02   1.2559723e+02   1.0990662e+02   9.5149041e+01   8.5312899e+01   7.2002131e+01   6.0388637e+01   5.3357579e+01   4.9422403e+01   4.6563222e+01   4.4050472e+01   3.4632174e+01   2.3223801e+01   1.4488753e+01   5.3435141e+01   4.8988951e+01   4.1313107e+01   3.2047209e+01   2.6283848e+01   1.6494725e+01   1.9061414e+01   2.5578715e+01   2.5891532e+01   2.0965741e+01   1.5269981e+01   2.3051532e+01   1.3528095e+01   7.6280883e+00   1.5088242e+00  -0.0000000e+00   1.2555844e+01  -0.0000000e+00  -0.0000000e+00  -0.0000000e+00
-0.0000000e+00  -0.0000000e+00  -0.0000000e+00  -0.0000000e+00  -0.0000000e+00  -0.0000000e+00  -0.0000000e+00  -0.0000000e+00  -0.0000000e+00  -0.0000000e+00  -0.0000000e+00  -0.0000000e+00  -0.0000000e+00  -0.0000000e+00  -0.0000000e+00  -0.0000000e+00  -0.0000000e+00   7.6917435e+00   2.2793317e+01   4.2685954e+01   8.4702828e+01   1.0240874e+02   1.1596091e+02   1.3734847e+02   1.4581998e+02   1.5006403e+02   1.2980070e+02   1.2397947e+02   1.1297238e+02   1.0842701e+02   9.4465569e+01   8.2466202e+01   6.9502425e+01   5.6885047e+01   5.1448279e+01   4.7847688e+01   4.5912090e+01   3.7266977e+01   2.7452902e+01   2.1658670e+01   1.6190307e+01   3.7809133e+01   4.0013705e+01   4.0065014e+01   5.1445859e+01   4.7671967e+01   2.8660291e+01   2.6179029e+01   9.2527426e+00   1.5424042e+01   2.3772689e+01   1.2050048e+01   1.0983771e+01   1.2247364e+01  -0.0000000e+00  -0.0000000e+00  -0.0000000e+00   6.4414534e+00   1.7687245e+01  -0.0000000e+00  -0.0000000e+00
-0.0000000e+00  -0.0000000e+00  -0.0000000e+00  -0.0000000e+00  -0.0000000e+00  -0.0000000e+00  -0.0000000e+00  -0.0000000e+00  -0.0000000e+00  -0.0000000e+00  -0.0000000e+00  -0.0000000e+00  -0.0000000e+00  -0.0000000e+00  -0.0000000e+00  -0.0000000e+00  -0.0000000e+00   2.3844723e+00   1.1585753e+01   2.4996104e+01   6.3286916e+01   8.7982958e+01   1.0120016e+02   1.1948872e+02   1.2667552e+02   1.4214978e+02   1.3379499e+02   1.2391446e+02   1.1167936e+02   1.0308419e+02   9.3690763e+01   7.7591297e+01   6.6446433e+01   5.6309321e+01   4.9446010e+01   4.6596211e+01   4.4689786e+01   3.7845793e+01   2.5747577e+01   1.6710117e+01   1.0047640e+01   2.8072655e+01   3.2625089e+01   2.9537964e+01   2.4982156e+01   3.5498532e+01   3.4154751e+01   4.3963436e+01   1.0923315e+01   1.5496147e+01   2.2081297e+01   1.6694446e+01   4.9283251e+00   5.6986176e+00  -0.0000000e+00  -0.0000000e+00  -0.0000000e+00   0.0000000e+00   0.0000000e+00   0.0000000e+00   0.0000000e+00
-0.0000000e+00  -0.0000000e+00  -0.0000000e+00  -0.0000000e+00  -0.0000000e+00  -0.0000000e+00  -0.0000000e+00  -0.0000000e+00  -0.0000000e+00  -0.0000000e+00  -0.0000000e+00  -0.0000000e+00  -0.0000000e+00  -0.0000000e+00  -0.0000000e+00  -0.0000000e+00  -0.0000000e+00  -0.0000000e+00  -0.0000000e+00   1.4948406e+01   4.2678892e+01   7.3681769e+01   8.1071984e+01   1.0109938e+02   1.1552924e+02   1.2421868e+02   1.2981173e+02   1.2551632e+02   1.1166512e+02   9.8992447e+01   8.7888518e+01   7.0962717e+01   6.1878371e+01   5.1627900e+01   4.8094695e+01   4.5442188e+01   4.2395401e+01   3.2726329e+01   1.9583593e+01   1.7092726e+01   2.1325889e+01   2.1945573e+01   2.9703838e+01   2.5268627e+01   2.9864426e+01   3.1957380e+01   2.9705829e+01   2.9888226e+01   3.9174337e+01   2.6984017e+01   1.7253529e+01   9.1672634e+00   5.8041521e+00  -0.0000000e+00  -0.0000000e+00  -0.0000000e+00  -0.0000000e+00   0.0000000e+00   0.0000000e+00   0.0000000e+00  -0.0000000e+00
-0.0000000e+00  -0.0000000e+00  -0.0000000e+00  -0.0000000e+00  -0.0000000e+00  -0.0000000e+00  -0.0000000e+00  -0.0000000e+00  -0.0000000e+00  -0.0000000e+00  -0.0000000e+00  -0.0000000e+00  -0.0000000e+00  -0.0000000e+00  -0.0000000e+00  -0.0000000e+00  -0.0000000e+00  -0.0000000e+00  -0.0000000e+00   2.7433764e+00   2.9677489e+01   5.7870253e+01   7.6101752e+01   8.4205056e+01   9.4610544e+01   1.1109511e+02   1.2416402e+02   1.2034053e+02   1.0628690e+02   9.5026249e+01   8.0533659e+01   6.5095680e+01   5.3095687e+01   4.8838732e+01   4.6317202e+01   4.4412273e+01   3.9927703e+01   3.1677692e+01   2.4727030e+01   9.6620184e+00   8.4473085e-01   1.2815200e+01   1.7846829e+01   2.8862629e+01   3.1671240e+01   3.1462057e+01   3.0133909e+01   1.5199204e+01   2.5711927e+01   2.4938438e+01   2.5565261e+01   2.3543774e+01  -0.0000000e+00  -0.0000000e+00  -0.0000000e+00  -0.0000000e+00  -0.0000000e+00  -0.0000000e+00  -0.0000000e+00   0.0000000e+00  -0.0000000e+00
-0.0000000e+00  -0.0000000e+00  -0.0000000e+00  -0.0000000e+00  -0.0000000e+00  -0.0000000e+00  -0.0000000e+00  -0.0000000e+00  -0.0000000e+00  -0.0000000e+00  -0.0000000e+00  -0.0000000e+00  -0.0000000e+00  -0.0000000e+00  -0.0000000e+00  -0.0000000e+00  -0.0000000e+00  -0.0000000e+00  -0.0000000e+00  -0.0000000e+00   2.1480243e+01   4.3420268e+01   6.3693060e+01   7.4996832e+01   8.1981286e+01   9.2067439e+01   1.0651588e+02   1.0288102e+02   9.9932480e+01   8.5848137e+01   7.0379977e+01   5.3849121e+01   4.8613792e+01   4.5265609e+01   4.3798108e+01   4.4032542e+01   3.6838793e+01   2.1978575e+01   1.0427894e+01   1.3422606e+01   2.5932251e+01  -0.0000000e+00   8.6134137e+00   1.5536083e+01   2.7531144e+01   2.9030456e+01   2.2374538e+01   2.1392464e+01   1.2526528e+01   2.1404479e+01   2.4914166e+01   2.4616638e+01   2.2878959e+01  -0.0000000e+00  -0.0000000e+00  -0.0000000e+00  -0.0000000e+00  -0.0000000e+00  -0.0000000e+00   0.0000000e+00   0.0000000e+00
-0.0000000e+00  -0.0000000e+00  -0.0000000e+00  -0.0000000e+00  -0.0000000e+00  -0.0000000e+00  -0.0000000e+00  -0.0000000e+00  -0.0000000e+00  -0.0000000e+00  -0.0000000e+00  -0.0000000e+00  -0.0000000e+00  -0.0000000e+00  -0.0000000e+00  -0.0000000e+00  -0.0000000e+00  -0.0000000e+00  -0.0000000e+00  -0.0000000e+00   9.1956891e+00   3.3809289e+01   5.4275184e+01   6.2606746e+01   6.7603317e+01   7.3538413e+01   8.8794480e+01   9.0740170e+01   8.7878799e+01   7.2214787e+01   5.4458676e+01   4.8380605e+01   4.4706936e+01   4.2148439e+01   4.1916664e+01   4.2897595e+01   4.3408991e+01   2.5876580e+01   7.8779635e+00   1.1892899e+01   2.3262943e+01   4.5147167e+00   2.5892071e+00   1.6091392e+01   2.3810594e+01   2.0069042e+01   2.1934374e+01   1.4281729e+01   1.9147599e-01   9.0574918e+00   2.0417027e+01   1.4330546e+01   9.8236225e+00   1.0721043e+01   3.7632187e-01  -0.0000000e+00  -0.0000000e+00  -0.0000000e+00  -0.0000000e+00   0.0000000e+00   0.0000000e+00
-0.0000000e+00  -0.0000000e+00  -0.0000000e+00  -0.0000000e+00  -0.0000000e+00  -0.0000000e+00  -0.0000000e+00  -0.0000000e+00  -0.0000000e+00  -0.0000000e+00  -0.0000000e+00  -0.0000000e+00  -0.0000000e+00  -0.0000000e+00  -0.0000000e+00  -0.0000000e+00  -0.0000000e+00  -0.0000000e+00  -0.0000000e+00  -0.0000000e+00   9.3035654e+00   3.0559348e+01   4.6749971e+01   5.5194288e+01   5.8381223e+01   5.8349025e+01   6.2808372e+01   6.8724762e+01   6.4396426e+01   5.6218909e+01   4.7940435e+01   4.4152765e+01   4.2044723e+01   4.0393126e+01   3.9983779e+01   3.0895456e+01   3.6066709e+01   4.3674937e+01   1.4868762e+01   1.1851689e+01   2.0689706e+01   2.5856645e+01   1.9004811e+01   2.0051026e+01   2.1469326e+01   1.9583863e+01   1.7293731e+01   1.4023146e+01   3.8454266e+00  -0.0000000e+00   1.0637359e+01   3.8551853e+00  -0.0000000e+00   1.5705732e+00   8.9443149e-01   1.5706637e+01  -0.0000000e+00   0.0000000e+00  -0.0000000e+00   0.0000000e+00   0.0000000e+00
-0.0000000e+00  -0.0000000e+00  -0.0000000e+00  -0.0000000e+00  -0.0000000e+00  -0.0000000e+00  -0.0000000e+00  -0.0000000e+00  -0.0000000e+00  -0.0000000e+00  -0.0000000e+00  -0.0000000e+00  -0.0000000e+00  -0.0000000e+00  -0.0000000e+00  -0.0000000e+00  -0.0000000e+00  -0.0000000e+00  -0.0000000e+00  -0.0000000e+00   1.1176891e+01   2.9416966e+01   3.9855656e+01   4.7107891e+01   5.0805392e+01   4.9098109e+01   5.2361687e+01   5.3677260e+01   5.0478297e+01   4.6009256e+01   4.3031220e+01   4.0319419e+01   3.8793764e+01   3.8013433e+01   3.7947462e+01   3.1157772e+01   2.3984416e+01   2.4201413e+01   3.4821540e+01   2.8950575e+01  -0.0000000e+00   1.4335911e+01   2.5603353e+01   2.3904407e+01   2.4005665e+01   2.1042121e+01   1.0857089e+01   8.5358010e+00   3.0094065e-01   3.4512066e+00  -0.0000000e+00  -0.0000000e+00  -0.0000000e+00  -0.0000000e+00   9.8415496e+00   2.3511972e+01   3.7964893e+01   0.0000000e+00  -0.0000000e+00   0.0000000e+00   0.0000000e+00
-0.0000000e+00  -0.0000000e+00  -0.0000000e+00  -0.0000000e+00  -0.0000000e+00  -0.0000000e+00  -0.0000000e+00  -0.0000000e+00  -0.0000000e+00  -0.0000000e+00  -0.0000000e+00  -0.0000000e+00  -0.0000000e+00  -0.0000000e+00  -0.0000000e+00  -0.0000000e+00  -0.0000000e+00  -0.0000000e+00  -0.0000000e+00  -0.0000000e+00   1.1476056e+01   1.8270206e+01   3.1229275e+01   3.5745118e+01   4.3820006e+01   4.1474811e+01   4.5216665e+01   4.3853479e+01   4.2779190e+01   3.9583202e+01   3.8010619e+01   3.6674562e+01   3.5595265e+01   3.5339992e+01   3.4190153e+01   3.0796626e+01   1.7867916e+01   1.0213205e+01   3.4185309e+01   3.5134307e+01   2.2365781e+01   2.4661352e+00   1.5411602e+01   1.4801639e+01   1.9722587e+01   2.0603491e+01   1.0705236e+01  -0.0000000e+00   3.9147145e-02   1.1069140e+00  -0.0000000e+00  -0.0000000e+00  -0.0000000e+00  -0.0000000e+00  -0.0000000e+00   1.0323960e+00  -0.0000000e+00   0.0000000e+00  -0.0000000e+00  -0.0000000e+00   0.0000000e+00
-0.0000000e+00  -0.0000000e+00  -0.0000000e+00  -0.0000000e+00  -0.0000000e+00  -0.0000000e+00  -0.0000000e+00  -0.0000000e+00  -0.0000000e+00  -0.0000000e+00  -0.0000000e+00  -0.0000000e+00  -0.0000000e+00  -0.0000000e+00  -0.0000000e+00  -0.0000000e+00  -0.0000000e+00  -0.0000000e+00  -0.0000000e+00  -0.0000000e+00   7.9144357e+00   1.4939052e+01   2.3578464e+01   2.5070786e+01   3.8816408e+01   3.4651379e+01   3.8382409e+01   3.6470759e+01   3.4742859e+01   3.3592741e+01   3.2939301e+01   3.2367035e+01   3.1823080e+01   3.1266676e+01   2.9370707e+01   2.2456914e+01   1.3427549e+01   7.9537317e+00  -0.0000000e+00  -0.0000000e+00   3.3814822e+01   2.7772769e+01   1.6798143e+01   1.5726681e+01   8.8647823e-01   1.8179766e+00   5.3140928e+00  -0.0000000e+00  -0.0000000e+00  -0.0000000e+00  -0.0000000e+00  -0.0000000e+00  -0.0000000e+00  -0.0000000e+00  -0.0000000e+00  -0.0000000e+00   0.0000000e+00   0.0000000e+00  -0.0000000e+00   0.0000000e+00   0.0000000e+00
-0.0000000e+00  -0.0000000e+00  -0.0000000e+00  -0.0000000e+00  -0.0000000e+00  -0.0000000e+00  -0.0000000e+00  -0.0000000e+00  -0.0000000e+00  -0.0000000e+00  -0.0000000e+00  -0.0000000e+00  -0.0000000e+00  -0.0000000e+00  -0.0000000e+00  -0.0000000e+00  -0.0000000e+00  -0.0000000e+00  -0.0000000e+00  -0.0000000e+00   3.0215087e+00   1.3507077e+01   1.9121191e+01   2.4017581e+01   3.0603198e+01   2.8608577e+01   2.9690453e+01   2.9184891e+01   3.1143219e+01   2.8434548e+01   2.8314806e+01   2.8196550e+01   2.7590268e+01   2.4208587e+01   2.0004751e+01   1.3549143e+01   5.4033165e+00  -0.0000000e+00  -0.0000000e+00  -0.0000000e+00   1.5116666e+01   2.5401861e+01   2.4268373e+01   1.5847373e+01   1.0872925e+01  -0.0000000e+00  -0.0000000e+00  -0.0000000e+00   5.6957161e+00   5.9321530e+00  -0.0000000e+00  -0.0000000e+00  -0.0000000e+00  -0.0000000e+00  -0.0000000e+00  -0.0000000e+00   0.0000000e+00   0.0000000e+00  -0.0000000e+00  -0.0000000e+00   0.0000000e+00
